-4386.757812,-4438.578613,-4419.245605,-4444.159180,-4406.843750,-4410.636230,-4404.398926,-4389.941406,-4415.269531,-4397.288574,-4401.454590,-4379.770508,-4350.370605,-4372.711914,-4296.923340,-4204.550781,-3955.796875,-4028.713623,-4285.796875,-4446.479492,-4417.633301,-4285.299316,-4075.849609,-3828.660889,-3332.602539,-3033.016357,-2839.744385,-2003.013306,-1207.897949,-1561.677734,-2252.438232,-2556.321289,-2630.795410,-2726.153564,-2793.239746,-2566.969482,-3135.531006,-3307.764893,-3602.864746,-3747.968262,-3780.528320,-3980.204346,-4162.276855,-4345.249512,-4455.443359,-4643.473633,-4707.014648,-4792.025879,-4869.058105,-4864.347656,-4929.271973,-4965.336914,-4253.624512,-4892.279785,-4841.374512,-4849.422852,-4868.588867,-4876.815430,-4857.974609,-4865.793945,-4875.046387,-4878.872559,-4888.565918,-4894.355469,-4891.523926,-4890.042969,-4861.417969,-4845.560547,-4830.317871,-4791.132812,-4765.454590,-4749.017090,-4768.509277,-4486.018555,-4759.751465,-4756.676758,-4575.333496,-4573.825684,-4213.055664,-4573.575195,-4517.871094,-4543.946289,-4745.515137,-4755.011230,-4428.993164,-4074.911133,-4686.133789,-4710.026855,-4662.517578,-4671.811523,-4656.433105,-4660.281250,-4643.510254,-4635.612305,-4633.387207,-4623.138184,-4609.363770,-4586.823242,-4580.199707,-4565.746582,-4562.778320,-4549.294434,-4533.407715,-4522.605469,-4513.421875,-4499.227539,-4494.020996,-4534.987793,-4499.840332,-4479.154297,-4462.998047,-4445.090332,-4416.217773,-4452.389648,-4444.958008,-4450.204102,-4451.641113,-4458.248047,-4493.519531,-4518.905273,-4495.922363,-4484.572266,-4491.098145,-4478.090332,-4482.902832,-4529.077637,-4532.354004,-4529.238281,-4464.778809
-4496.781250,-4488.327148,-4483.039062,-4463.162109,-4445.495117,-4416.386719,-4379.106934,-4276.977539,-4346.789062,-4350.093750,-4255.869141,-4203.081543,-4122.748535,-4084.753418,-3913.061523,-3989.528076,-3651.806396,-3563.253174,-3320.482178,-3821.831299,-3689.036133,-3472.585693,-3261.855957,-2888.708984,-2795.907715,-2486.118896,-2310.513672,-1146.261597,-500.446320,-501.083679,-1670.207886,-1897.623413,-2072.246582,-2030.936035,-1676.125000,-1947.955566,-3203.864502,-3337.469971,-3424.854492,-3582.117676,-3628.711670,-3933.645752,-4164.751465,-4461.209961,-4506.267090,-4565.841309,-4722.411621,-4785.031250,-4827.966797,-4795.732422,-4804.049316,-4838.325195,-4195.422852,-4890.002441,-4835.226562,-4862.940918,-4873.208984,-4863.998535,-4862.185547,-4838.561035,-4872.340332,-4888.479980,-4906.371582,-4913.343262,-4917.889648,-4899.672363,-4887.942383,-4852.140137,-4811.901855,-4790.236328,-4795.710449,-4727.092285,-4761.796387,-4756.168457,-4761.339355,-4757.445801,-4498.766602,-4714.192871,-4103.997559,-4594.705078,-4180.993164,-4630.884766,-4701.086426,-4786.763672,-4672.300781,-4439.255859,-4762.172852,-4752.678711,-4744.415039,-4725.516113,-4716.366699,-4701.219238,-4681.280273,-4685.340332,-4681.547852,-4656.644043,-4650.071777,-4629.840820,-4622.413086,-4627.249023,-4608.634277,-4587.837402,-4574.314941,-4565.855957,-4556.049316,-4548.208496,-4530.380859,-4514.687988,-4531.455078,-4516.574219,-4518.446289,-4472.937012,-4466.415527,-4485.956055,-4477.916504,-4470.338867,-4463.020996,-4465.097168,-4475.821289,-4506.605469,-4509.656250,-4512.577637,-4501.555176,-4513.384766,-4461.371094,-4537.028809,-4519.657715,-4554.546387,-4531.844727
-4484.669434,-4487.898438,-4490.677734,-4461.151855,-4449.683105,-4406.407715,-4386.184082,-4372.512207,-4329.046875,-4264.713379,-4122.571777,-3944.554932,-3799.627197,-3828.265869,-3716.045654,-3393.366211,-3361.906250,-2738.427246,-2465.820557,-2644.933838,-2205.921631,-2129.407959,-2093.108154,-1861.191162,-1759.768311,-1815.396484,-987.573547,-465.192078,-53.424377,-118.485939,-168.317535,-514.744751,-481.494202,-517.721741,-728.829773,-2005.333252,-3104.635986,-3175.250732,-3165.357422,-3367.427490,-3555.558350,-3942.255127,-4213.097168,-4433.087402,-4443.580566,-4539.951660,-4667.335938,-4739.896973,-4786.177246,-4755.186523,-4788.251953,-4808.333008,-4866.642578,-4874.610352,-4851.080566,-4867.147461,-4815.704102,-4862.355957,-4851.813477,-4844.670898,-4855.217285,-4891.654785,-4908.258789,-4917.618164,-4929.546387,-4908.286621,-4888.745117,-4864.590332,-4818.062012,-4773.198730,-4722.126953,-4707.946289,-4719.547363,-4671.612793,-4811.160156,-4784.715820,-3890.170410,-4373.469238,-4440.554688,-4612.840820,-3782.967041,-3879.522217,-3817.097168,-4244.089844,-4811.540039,-4804.617676,-4796.672363,-4785.378418,-4784.220703,-4767.490723,-4759.668945,-4753.290527,-4756.572266,-4739.084961,-4734.760254,-4712.357910,-4689.125488,-4676.810059,-4700.944336,-4663.044434,-4656.736816,-4629.874023,-4619.029785,-4616.972656,-4601.531250,-4587.076172,-4581.039062,-4561.385254,-4535.953613,-4557.080078,-4549.599121,-4535.802246,-4467.337402,-4313.177246,-4505.798340,-4493.842773,-4474.763672,-4471.167969,-4507.078125,-4531.037109,-4521.757324,-4512.224121,-4496.889160,-4503.198730,-4510.655762,-4549.412598,-4548.546875,-4566.990234,-4545.298340
-4486.297363,-4471.816406,-4451.789551,-4425.121094,-4417.324219,-4207.506836,-4336.247070,-4332.535156,-4258.786133,-4141.081543,-3885.237549,-3891.579834,-3778.683105,-3341.253662,-3246.955078,-2938.505615,-1977.109009,-2700.895996,-2520.238281,-2148.632080,-1604.147583,-1467.842651,-764.094055,-629.813477,-564.120667,-351.619293,-109.275764,-23.901278,613.697510,68.162834,4.074061,91.135170,72.081192,-28.175228,-596.339172,-2042.048340,-2910.004639,-3015.656250,-2904.879150,-3046.980225,-3369.570068,-3720.103760,-4130.015625,-4302.913086,-3909.453369,-3827.351562,-4362.176758,-4618.080566,-4723.247070,-4727.637695,-4732.919434,-4814.178223,-4896.036133,-4893.771484,-4875.204102,-4857.712402,-4839.757812,-4821.395020,-4787.164551,-4773.387695,-4842.802734,-4869.498535,-4900.821289,-4918.257324,-4930.180664,-4901.159180,-4873.008301,-4790.481934,-4784.399902,-4763.573730,-4729.245605,-4684.171387,-4679.368652,-4630.901855,-4487.213379,-4755.978027,-4452.885742,-4690.477539,-3604.061768,-4457.231445,-4220.937988,-4679.537109,-4675.075195,-4865.875977,-4840.564453,-4831.260742,-4829.008789,-4827.005859,-4832.575684,-4815.909668,-4821.394043,-4799.378418,-4346.460449,-4803.085938,-4773.568359,-4759.908203,-4753.238281,-4732.829590,-4724.627441,-4721.250488,-4709.547852,-4686.811523,-4679.892090,-4676.108398,-4662.419922,-4641.373047,-4618.339355,-4625.499023,-4604.476074,-4603.688965,-4588.936035,-4583.290039,-4516.057129,-4474.272461,-4558.189941,-4507.429199,-4518.348633,-4477.027344,-4537.887207,-4566.027832,-4545.738770,-4542.478516,-4534.162598,-4521.645996,-4523.004883,-4552.279297,-4570.821289,-4575.398438,-4593.068359
-4476.991211,-4456.073242,-4433.447754,-4386.694824,-4381.018555,-4307.739746,-4266.223633,-4115.176270,-4174.194824,-4113.808594,-3935.456299,-3722.762695,-3578.961914,-3031.344971,-2588.730469,-2215.109863,-1614.130005,-1312.865112,-2071.302490,-2069.245850,-1860.830200,-1572.313965,-711.535889,-445.753113,-59.553291,-24.033731,701.089478,848.924255,240.284958,404.079224,69.686539,323.980591,288.796600,68.852325,-83.381096,-1729.375854,-2773.676025,-2656.472168,-2798.777100,-3004.975830,-3293.039551,-3780.601318,-4003.747314,-3946.678467,-3219.539551,-3087.381104,-3929.476807,-4509.708984,-4646.202148,-4695.790039,-4774.245117,-4852.800781,-4901.801270,-4862.480957,-4888.674316,-4853.384277,-4806.301758,-4759.931152,-4744.026367,-4767.201172,-4763.227051,-4780.377441,-4820.745605,-4863.733398,-4880.963867,-4868.042969,-4870.214844,-4825.355469,-4763.762207,-4774.591309,-4726.687012,-4638.508789,-4628.662598,-4625.925781,-4651.598633,-4461.956543,-3485.194580,-3746.590576,-4605.185059,-4304.567871,-3923.310791,-4363.120605,-4814.078125,-4759.570312,-4891.302734,-4883.424805,-4870.815918,-4866.070312,-4902.371582,-4877.101562,-4871.769043,-4805.071777,-4448.553223,-4842.704102,-4843.321289,-4821.310547,-4799.011230,-4796.250977,-4794.078125,-4796.602539,-4770.448242,-4748.095215,-4758.359375,-4756.360840,-4712.001953,-4706.950684,-4702.981445,-4683.280273,-4665.851074,-4648.737793,-4613.518555,-4510.963867,-4545.727051,-4591.075195,-4591.052246,-4563.103027,-4479.623535,-4522.934570,-4532.058105,-4538.061035,-4570.918945,-4562.646973,-4557.610352,-4533.403809,-4526.250977,-4588.830078,-4565.874512,-4564.569336,-4596.750977
-4422.352539,-4377.129883,-4358.905762,-4361.658691,-4276.611328,-4207.535645,-4046.382080,-4124.337891,-3933.839111,-3637.457275,-3689.545410,-3525.506836,-3294.993896,-2880.720703,-1711.220581,-1387.924438,-758.789734,-785.508240,-933.983704,-1505.395386,-1834.065308,-1161.715332,-723.117798,-298.366028,-25.909708,394.894379,1057.534424,1086.027466,1051.797852,629.696594,384.991394,660.781372,205.116592,45.875237,-219.632172,-1589.002441,-2437.314453,-2507.998779,-2623.155518,-2998.967285,-3473.687256,-3717.849121,-3925.133301,-3790.431396,-3242.526611,-2392.906250,-2882.666260,-3907.801514,-4240.580566,-4537.338379,-4742.495117,-4811.323730,-4484.946289,-4680.895020,-4809.630371,-4743.157227,-4689.118652,-4611.646484,-4626.787598,-4636.553711,-4613.429688,-4615.576172,-4701.188477,-4778.548828,-4867.411133,-4801.577148,-4638.087891,-4688.042969,-4631.219238,-4671.923340,-4597.831055,-4648.099609,-4692.858887,-4745.853027,-4655.983398,-2888.806641,-2981.843018,-3026.642578,-3470.499023,-4340.232910,-4699.476074,-4465.765137,-4811.942871,-4870.134277,-3430.099365,-4885.834473,-4930.675293,-4926.306641,-4927.176758,-4917.315918,-4913.200684,-4906.954102,-4886.793457,-4901.923340,-4894.097168,-4897.800293,-4883.209961,-4869.568848,-4859.784180,-4845.199219,-4838.733398,-4795.719727,-4825.377930,-4813.802734,-4821.524902,-4788.947754,-4776.785156,-4755.587891,-4744.619629,-4735.024902,-4691.942871,-4569.250000,-4641.333984,-4623.305664,-4605.644531,-4593.984375,-4579.292480,-4564.464355,-4546.485840,-4540.906250,-4577.175781,-4607.664551,-4581.191406,-4574.927246,-4555.305664,-4578.448730,-4579.733398,-4588.047852,-4614.468750
-4365.516602,-4339.611816,-4305.718262,-4226.173340,-4203.318848,-4136.868652,-4022.431152,-3951.591797,-3937.020264,-3772.406982,-3565.577881,-3277.360352,-3006.923340,-2589.164062,-1942.817017,-988.595581,-534.282288,-494.943848,-521.527588,-871.784058,-1650.481079,-1157.566040,-666.589539,-224.856369,2.500000,504.463196,867.641846,418.133820,1101.060547,633.701294,443.886261,209.391479,89.770653,5.836954,-627.370605,-1392.623657,-2043.722656,-2477.857178,-2745.422852,-3189.533447,-3450.251709,-3532.184326,-3551.288574,-3671.744141,-3301.524902,-2289.181396,-2106.943359,-2995.707031,-3725.370361,-4212.822754,-4342.115234,-4615.334473,-4634.781738,-4673.683594,-4601.587402,-4697.372070,-4540.507324,-4403.470215,-4325.347168,-4397.052734,-4351.500977,-4392.093262,-4432.528809,-4523.313477,-4673.307617,-4595.914062,-4558.470215,-4635.254395,-4651.451660,-4589.931152,-4624.264648,-4603.849121,-4417.348145,-4231.027344,-4685.535645,-4268.284180,-3364.310547,-2920.559570,-2767.184082,-3879.239502,-4770.941895,-4820.026367,-4825.000488,-4924.118164,-4962.997070,-4980.242188,-4977.917969,-4973.358398,-4976.398438,-4981.698730,-4967.078125,-4987.821777,-4987.923340,-4991.074219,-4973.311035,-4968.247070,-4952.630859,-4949.514648,-4937.233887,-4900.679199,-4903.307617,-4888.782227,-4904.193359,-4885.643555,-4872.368652,-4851.225098,-4831.645996,-4823.459473,-4813.069336,-4789.278320,-4749.398926,-4720.496094,-4688.190918,-4664.464355,-4656.052246,-4634.549805,-4626.409668,-4588.486328,-4598.228027,-4619.732910,-4630.744629,-4618.495117,-4603.881348,-4596.387695,-4556.308105,-4545.988770,-4602.244629,-4613.320312,-4616.870117
-4312.815430,-4317.311035,-4258.160645,-4186.560059,-4081.389404,-3886.946533,-3875.452393,-3744.296875,-3769.833496,-3518.612305,-3009.930176,-2590.697021,-2329.348877,-2308.520264,-1663.143555,-712.443298,-427.318054,-87.898727,-21.275131,-761.264404,-1214.697876,-820.748413,-653.303040,-355.832886,3.597700,292.715363,332.441010,113.179108,688.286438,532.079834,351.602722,223.917404,87.927063,-23.263006,-772.237000,-1696.081909,-2248.720703,-2705.835938,-2822.489990,-3220.587646,-3203.312012,-3156.783203,-3259.739014,-3325.210693,-3040.430420,-2458.266357,-1807.236694,-2357.896484,-3010.601807,-3613.713867,-2760.864746,-3632.361816,-4163.825684,-4229.421387,-3844.988037,-3995.449707,-4337.872070,-4099.805176,-4136.737793,-4142.608887,-4081.932129,-4084.136719,-4208.063477,-4239.296875,-4362.156250,-4411.240234,-4285.770996,-4554.614746,-4606.293945,-4555.645996,-4527.250000,-4135.007324,-3848.403076,-4124.038574,-3622.844482,-4159.220215,-4186.440918,-3752.023682,-2978.588135,-4190.835938,-4783.062012,-4808.075195,-4758.192871,-4973.458008,-5015.780762,-5007.215820,-5037.071777,-5031.953613,-5036.613281,-5051.840820,-5048.388184,-5056.396973,-5077.299805,-5068.758301,-5082.143555,-5057.718262,-5045.426270,-5028.378418,-5017.210449,-5006.604980,-5000.271484,-4987.900879,-4972.145020,-4941.788086,-4928.335449,-4915.435547,-4895.635254,-4891.541992,-4856.824219,-4856.762695,-4826.881348,-4765.306641,-4740.040039,-4713.364746,-4698.228027,-4691.306641,-4667.468262,-4649.476562,-4615.199219,-4629.640137,-4681.833984,-4651.595703,-4633.476562,-4628.324707,-4544.227539,-4544.639648,-4644.949707,-4514.479980,-4532.030273
-4303.188477,-4261.614258,-4156.594238,-4104.900879,-4038.289795,-3744.700928,-3667.246582,-3689.312256,-3625.750244,-3529.899658,-3146.190186,-2452.654053,-967.116882,-944.931396,-901.618591,-448.070831,-23.656452,0.397810,2.635021,-690.845337,-949.543274,-766.784729,-694.523438,-577.692932,-379.301605,-23.513180,3.781697,124.857925,331.253906,488.507660,192.627106,97.866699,53.012386,-33.747322,-947.070129,-1837.492920,-2491.695312,-2800.098877,-2950.857178,-3087.940918,-3157.665039,-3075.753418,-2808.923584,-2366.616699,-2558.511963,-2420.957764,-1662.123779,-1693.655762,-2497.158447,-2875.371338,-3011.857910,-3027.775391,-3043.930908,-3284.970703,-3394.442383,-3395.369629,-3480.302979,-3838.273926,-3711.384521,-3519.216309,-3693.519043,-3741.231201,-3898.163086,-4062.079102,-3970.206055,-4175.246582,-4170.401855,-4517.174316,-4465.612305,-4457.541504,-4433.273438,-4263.649902,-4316.417969,-4266.750977,-3797.160645,-3903.114258,-4124.358398,-4211.751953,-4526.882324,-4739.337402,-4807.456543,-4854.812988,-4583.877930,-5040.198730,-5089.879883,-5084.363281,-4762.443359,-5075.653809,-5101.153809,-5133.384766,-5118.049805,-5146.708008,-5152.510254,-5153.353516,-5149.245117,-5165.586914,-5139.306641,-5129.284668,-5121.162109,-5115.583496,-5094.130859,-5069.171387,-5042.125977,-5025.061035,-5006.121582,-4982.033203,-4965.304688,-4941.018555,-4922.138184,-4917.120605,-4898.081543,-4834.202148,-4782.153320,-4770.662598,-4748.256836,-4730.315918,-4719.820312,-4717.520508,-4686.282227,-4708.054688,-4648.770020,-4700.583984,-4704.655273,-4673.732422,-4668.422363,-4604.020020,-4658.772949,-4612.789551,-4549.582520
-4307.995117,-4246.938477,-4110.914062,-4034.727539,-3893.081787,-3857.917236,-3693.939209,-3501.586670,-3265.608398,-3332.142090,-3301.951416,-2785.078369,-2370.505371,-1565.437378,-516.382629,-16.538685,23.427986,223.943329,-16.564596,-401.431000,-666.291077,-650.373779,-825.173706,-835.885986,-871.221802,-847.590088,-342.654877,5.633821,62.359314,163.616058,79.052551,26.991255,-29.586163,-589.854858,-1390.240845,-2344.795898,-2621.978271,-2726.185791,-2854.986328,-2955.227051,-2949.430176,-2873.254150,-2444.658447,-1772.325195,-1641.419556,-2167.416504,-2102.126953,-1264.924683,-1361.402344,-2448.151367,-2696.167725,-2688.025146,-3005.010254,-3232.546631,-3005.514404,-3349.720703,-3248.303223,-3159.971924,-2958.531982,-2851.910645,-3057.876221,-3135.163330,-3482.841553,-3810.910400,-3854.706055,-3543.933594,-3631.874512,-4097.489746,-4271.128418,-4219.429199,-4231.442383,-3856.472168,-4310.036621,-4335.376465,-4205.388672,-3897.523193,-4424.659180,-4498.353027,-4634.044922,-4672.396484,-4837.259277,-4845.827148,-4986.580566,-5105.062500,-5135.294922,-4490.658691,-4837.320801,-5182.113770,-5183.965332,-5207.957031,-5226.440918,-5222.764648,-5234.749512,-5241.702637,-5252.299805,-5189.530273,-5244.441406,-5246.984375,-5232.627930,-5221.895508,-5213.880859,-5186.858887,-5140.431641,-5105.999512,-5102.394531,-5080.686523,-5047.688477,-4992.717773,-4971.149414,-4953.620117,-4974.393555,-4905.216797,-4796.839355,-4850.517090,-4806.044434,-4788.594238,-4786.569336,-4792.440918,-4706.291504,-4760.243164,-4659.602539,-4696.112793,-4683.033691,-4683.718262,-4601.017578,-4668.300293,-4679.826172,-4628.814453,-4596.783691
-4323.875488,-4234.175781,-4103.330566,-3957.950195,-3695.467773,-3568.250488,-3475.017822,-3245.041504,-3090.371338,-3001.660645,-3092.668457,-2755.685791,-2405.918213,-1649.530640,-616.233765,7.803408,5.542624,-36.785721,-77.135628,-632.115540,-908.847107,-1126.360962,-1700.165283,-2234.602783,-2195.482422,-2070.940918,-1800.776611,-1337.877563,-955.543396,-459.813629,-120.234894,-284.701416,-506.740814,-1662.861206,-2482.304443,-2831.463379,-2753.729004,-2927.194824,-2913.212158,-3011.041504,-2845.968994,-2523.104248,-1845.209351,-1235.272461,-1121.575806,-1428.155273,-1777.684814,-1325.831787,-1239.345825,-1457.151611,-2207.345459,-2362.628906,-2482.659424,-2487.070068,-2598.364014,-2801.093994,-2629.741943,-2500.039062,-2109.260254,-1548.659790,-1829.138916,-2209.422607,-2727.164795,-2775.750244,-2872.905518,-3099.794434,-2559.705078,-2751.138184,-3178.473389,-3666.363037,-4055.591064,-3667.191650,-3454.679199,-3770.654785,-4364.951172,-3798.900635,-4460.058105,-4454.621582,-4556.003418,-3993.293945,-4783.739746,-4872.502441,-5019.666016,-4979.838867,-5081.100586,-5206.045898,-5221.499023,-5212.740723,-5221.088379,-5255.106445,-5267.602051,-5282.404297,-5296.663086,-5312.124512,-5320.208008,-5333.524414,-5327.685059,-5329.610840,-5314.663574,-5299.573242,-5306.391113,-5289.892090,-5264.333984,-5211.791992,-5168.901367,-5165.714844,-5146.079590,-5079.220215,-5033.172363,-5011.842285,-5034.083008,-5005.089355,-4909.349121,-4889.775879,-4896.505859,-4682.000488,-4819.166016,-4836.603027,-4753.002930,-4816.752441,-4744.021973,-4740.538086,-4728.524414,-4718.009277,-4686.892090,-4535.001953,-4624.480957,-4614.608398,-4628.596680
-4296.515137,-4198.771973,-4084.675781,-3902.754639,-3793.486816,-3351.712402,-2917.957764,-2469.948242,-2822.377930,-2873.128174,-2560.841553,-2631.602539,-2045.473633,-878.575073,-436.079987,35.755875,-69.544106,-426.473480,-353.733887,-806.332520,-1471.128540,-2024.580322,-2480.033691,-2505.837646,-2437.972900,-2251.195557,-2078.251953,-1968.618164,-1767.117554,-1431.976929,-1433.249512,-1206.638916,-1115.043335,-2572.168945,-2995.644531,-3081.208984,-2911.172363,-3062.654297,-3176.243896,-3284.502930,-3222.895264,-2701.629883,-1794.420166,-1170.658203,-936.210205,-1139.224976,-1243.897949,-1272.848389,-1229.816162,-1207.009766,-1441.002441,-1906.189697,-2221.355957,-2383.274170,-2431.907471,-2325.656006,-1872.704346,-1200.032227,-542.122742,-455.813782,-457.076721,-573.719849,-984.520996,-1637.399292,-2122.295166,-2247.567871,-2683.960205,-2615.338867,-3440.560303,-3882.905518,-3980.655273,-3722.312500,-3764.137939,-3346.326660,-4435.838379,-4429.945312,-4444.464844,-4442.973633,-4389.162109,-4515.490234,-4817.642578,-4579.769043,-4630.570801,-4333.944336,-5104.098145,-5046.199219,-5227.588379,-5254.294434,-5245.911621,-5258.778320,-5317.918457,-5352.001465,-5358.075195,-5367.077637,-5382.250000,-5392.018555,-5393.761719,-5404.268555,-5412.734375,-5399.357910,-5389.452637,-5391.286621,-5362.446289,-5384.436035,-5275.275879,-5243.649414,-5237.133789,-5190.040527,-5139.035645,-5126.044922,-5123.463867,-5064.978516,-4990.694824,-4957.224121,-4919.848145,-4907.928223,-4872.689941,-4858.447754,-4890.426270,-4574.215332,-4827.386230,-4782.927734,-4747.974609,-4753.657227,-4732.222656,-4681.646973,-4610.178711,-4592.169922,-4688.127930
-4304.473145,-4235.913574,-4146.200195,-3996.479736,-3695.951416,-3441.251953,-2242.476318,-1396.515503,-1496.358643,-1709.787231,-2086.703369,-1686.265137,-857.518982,-1459.337280,-548.078369,-56.357876,-493.126648,-682.857971,-859.445251,-1580.506958,-2418.052979,-2580.904053,-2683.791504,-2722.894043,-2737.565674,-2411.379883,-2305.090088,-2207.188721,-2066.710693,-1982.112061,-2023.618774,-2234.680908,-2182.506836,-3070.626465,-3063.437500,-3305.867188,-2968.836426,-3153.651611,-3357.733643,-3235.988525,-3310.644287,-3011.855957,-2366.109619,-1897.632812,-1370.248169,-1104.699341,-886.837585,-972.027649,-1048.539551,-1073.763672,-1115.740601,-1243.581055,-1168.385010,-1227.754883,-1399.715820,-1907.165894,-1457.417969,-469.411499,-344.697388,-247.579483,-230.160385,-337.381866,-489.619141,-776.056091,-2014.810303,-2120.158936,-2258.036865,-2582.176270,-2508.456543,-2295.471924,-3638.380859,-3374.897217,-3361.970459,-3713.672363,-3741.248535,-4267.288574,-4425.664062,-4439.403320,-4417.902344,-4647.312500,-4718.786133,-4876.636719,-4891.246582,-4979.496582,-5110.714844,-5150.401367,-5217.703125,-5192.012695,-5297.229004,-5329.232910,-5372.734863,-5260.809082,-5408.015625,-5419.885254,-5441.888672,-5472.353027,-5492.407715,-5462.725586,-5494.927246,-5481.625488,-5481.410156,-5491.347168,-5458.464844,-5397.468750,-5384.416504,-5355.312988,-5327.946777,-5281.790527,-5248.104004,-5193.381836,-5191.273438,-5156.884277,-5063.788086,-4992.120605,-4998.607422,-4957.674805,-4943.756836,-4920.132324,-4949.863770,-4583.373047,-4904.972656,-4817.640137,-4820.457520,-4812.224609,-4786.472168,-4743.907227,-4659.283691,-4569.796875,-4756.404785
-4341.984863,-4286.510254,-4234.447754,-3935.446533,-3781.864502,-2934.813477,-2109.675293,-493.580414,-85.697678,-1076.035522,-1204.904175,-1888.907227,-2191.475342,-2066.298340,-1497.069580,-706.671997,-824.380493,-1063.014771,-1520.128662,-2703.872559,-2871.154053,-2997.112549,-2873.268555,-2836.243896,-2919.512695,-2658.643066,-2490.101562,-2386.110107,-2354.803223,-2460.252686,-2517.812256,-2504.272705,-2654.201416,-3361.579834,-3313.506104,-3375.859131,-3346.375000,-3218.476074,-3542.451904,-3688.239746,-3613.215332,-3542.442383,-3168.358398,-3044.205566,-2566.393311,-1815.412354,-959.914856,-933.964722,-994.670532,-973.746338,-958.401123,-910.973999,-922.738098,-965.130981,-1019.377502,-920.846985,-483.384827,-340.499298,-107.188744,-30.001293,1.197065,-50.174404,-317.321869,-630.429871,-1654.288330,-2139.483154,-2466.916992,-2712.644043,-2881.016602,-2997.558838,-3025.082764,-3175.246582,-3321.039795,-3930.133545,-4285.489746,-4446.047852,-4307.286621,-4387.751953,-4395.735840,-4530.683105,-3883.874756,-4284.668945,-4527.811035,-4782.683105,-4918.666016,-5147.208984,-5193.008789,-5269.552734,-5309.353516,-5358.910645,-5413.523438,-5423.261230,-5456.180176,-5504.081543,-5533.985352,-5539.551270,-5555.135254,-5560.879395,-5559.385254,-5560.270020,-5561.973145,-5544.414062,-5543.684570,-5521.753418,-5509.584961,-5504.482422,-5406.460938,-5366.389648,-5338.246582,-5277.226562,-5242.255859,-5183.096191,-5106.895020,-5081.579590,-5047.293457,-5041.102539,-5015.737305,-4995.154297,-4978.156738,-5004.971191,-4988.050293,-4932.916992,-4864.076660,-4854.195801,-4858.516113,-4853.741211,-4844.337891,-4879.955078,-5144.506348
-4386.516113,-4325.106934,-4231.599121,-4088.524170,-3851.046875,-2766.312988,-1691.905884,-447.971466,-71.485123,-289.566803,-1521.752686,-2263.426514,-2521.077148,-2433.600342,-1831.320068,-2011.403442,-2121.642578,-2079.317871,-2603.855225,-3158.351807,-3282.196777,-3503.030762,-3213.830566,-3177.824463,-2933.895752,-2780.992676,-2683.416016,-2548.570557,-2555.664795,-2570.719727,-2686.845215,-2843.802734,-3151.013184,-3320.771729,-3512.901123,-3567.684082,-3498.704834,-3560.048340,-3761.420166,-3866.072510,-3904.935059,-4008.163330,-3953.185547,-3676.865234,-3342.648438,-2506.278320,-1367.272949,-1026.028442,-993.224487,-968.473083,-848.043396,-698.725891,-585.528259,-539.338257,-514.714111,-434.848236,-350.908264,-171.036209,-37.234802,154.533691,144.798462,-3.714003,-230.368561,-569.253418,-1111.176514,-1912.314941,-2248.536377,-2431.686523,-2945.550293,-3017.447021,-3064.706787,-3085.631104,-3106.409180,-2935.265137,-3229.378418,-3546.848633,-4382.517578,-4380.483398,-4602.945801,-4739.392090,-4745.872559,-4781.952637,-4818.369629,-4900.738281,-4607.899414,-5115.259766,-5155.027832,-5244.179688,-5339.778320,-5390.147461,-5435.656738,-5481.538574,-5520.500488,-5555.025879,-5578.336426,-5589.498535,-5588.479004,-5589.187988,-5612.464355,-5602.427246,-5613.754883,-5589.548340,-5575.120605,-5559.038086,-5545.833984,-5522.792969,-5483.202637,-5448.179199,-5405.649414,-5354.805176,-5326.040039,-5281.272949,-5213.655762,-5163.436035,-5129.422852,-5110.296387,-5001.645508,-4879.448242,-4744.041992,-4872.712891,-5036.815430,-5064.445801,-4874.989746,-4738.837891,-4463.335938,-4373.321777,-4516.217285,-4881.691406,-4955.644043
-4388.123047,-4261.987793,-4129.146484,-3976.739990,-3650.302734,-2935.222412,-2516.963135,-2177.147705,-1545.856934,-841.558289,-2176.927979,-2637.272461,-2705.282227,-2756.783447,-2993.390625,-2793.080078,-3278.824707,-2929.235107,-2732.484619,-3352.411377,-3804.412354,-3527.237793,-3392.057373,-3327.885742,-3099.653809,-2945.976074,-2820.862549,-2735.437500,-2719.453369,-2773.864990,-2779.317871,-2933.659180,-3044.964355,-3340.305664,-3690.557129,-3878.795654,-3764.218506,-3844.224121,-3905.857178,-3956.509277,-4069.939941,-4184.557617,-4156.495605,-4070.476074,-3820.329590,-2721.076904,-2106.811768,-1461.361816,-1039.641479,-971.766479,-796.281067,-550.658264,-306.626373,-92.098465,-65.034775,-82.593231,-96.109291,-32.384869,96.041931,298.945557,515.523438,140.013092,-57.460217,-478.849976,-796.073486,-1079.551025,-1693.330933,-1833.562256,-2305.034912,-2637.510986,-2914.971680,-3020.294434,-3020.118408,-3096.410645,-3282.322510,-3456.050293,-4339.537109,-4298.322754,-4250.844238,-4179.869629,-3539.314453,-3462.122559,-3895.560059,-4359.477539,-4674.061523,-5073.216309,-5142.609863,-5263.502930,-5336.073730,-5402.443848,-5457.469727,-5511.117188,-5560.650391,-5578.743652,-5632.989258,-5650.982910,-5645.330078,-5638.282715,-5657.532715,-5649.000488,-5639.746094,-5635.542969,-5622.021484,-5617.080566,-5597.200684,-5574.352539,-5555.373047,-5483.458008,-5449.002441,-5402.669922,-5367.102539,-5346.020020,-5317.908691,-4600.904785,-5158.003906,-5200.699707,-5183.591797,-5183.312012,-5163.381348,-5154.564453,-5147.428711,-5131.172363,-5102.738281,-5090.195801,-5067.683594,-5050.053711,-5050.110840,-5050.504883,-5045.563477
-4331.760254,-4231.645508,-4026.017578,-3835.714600,-3589.401855,-3316.745361,-2858.421387,-2913.567383,-2433.398438,-2280.284180,-2607.180420,-3006.421875,-3395.838379,-3359.722168,-3503.786377,-3746.427734,-3995.552246,-3968.559326,-4066.803223,-4059.369385,-3924.154053,-3800.307373,-3674.551025,-3367.954590,-3331.753662,-3154.480469,-2875.012695,-2956.906494,-2951.200195,-2947.909424,-3021.677979,-3069.247803,-3223.036865,-3268.689697,-3666.527344,-4005.608643,-4003.793945,-4012.649658,-4042.322754,-4126.802246,-4250.057617,-4261.315918,-4231.106934,-4269.771484,-3932.407227,-3550.327148,-2895.565918,-2894.637939,-2627.307861,-2450.749756,-1163.920654,-1578.912109,-967.319092,-105.104980,-33.975555,521.888428,131.508804,28.231915,192.767746,349.347778,464.014618,815.912537,-0.437013,-50.662983,-588.588623,-907.726562,-1017.543213,-1205.078979,-2103.295654,-2514.407471,-2823.881836,-2887.130615,-2909.982422,-3101.913330,-3324.639404,-3478.375000,-3742.309814,-3827.794678,-3257.641602,-3496.419922,-3506.587646,-3294.819092,-3491.010010,-3437.324463,-4004.955078,-4924.908691,-5072.717773,-5221.516113,-5331.123535,-5430.059570,-5465.938477,-5536.731934,-5579.702637,-5634.107422,-5670.959473,-5685.511230,-5689.291016,-5699.107910,-5697.478027,-5699.038086,-5692.250488,-5675.720215,-5659.787598,-5651.798828,-5636.825684,-5622.898926,-5592.496094,-5528.772461,-5462.164551,-5435.166504,-5403.757324,-5359.555176,-5302.969727,-5269.989746,-5252.734375,-5219.403320,-5202.218262,-5187.221680,-5188.191406,-5189.236816,-5142.402344,-5136.015625,-5126.215820,-5107.519043,-5097.726074,-5048.818359,-5013.074707,-4977.182129,-5015.748047
-4246.197754,-4156.693359,-4013.316162,-3865.925781,-3648.057617,-3259.309326,-3300.007080,-3411.572266,-3521.646484,-3740.785156,-3729.959717,-3843.825439,-3806.945557,-3975.330811,-4109.089355,-4173.254883,-4215.044922,-4179.045410,-4241.889160,-3933.091309,-4017.563721,-3834.994141,-3520.709473,-3481.583252,-3492.218018,-3182.442871,-3146.666748,-2748.462646,-3129.375244,-2859.241699,-3092.866943,-3266.266602,-3321.607422,-3353.111572,-3579.660645,-4005.955566,-4189.462891,-4222.775879,-4263.708008,-4303.202148,-4324.582031,-4450.733887,-4472.992188,-4449.330566,-4407.049805,-3995.727539,-3484.638916,-2746.803223,-2673.786865,-2629.940674,-2583.804932,-2391.665283,-2046.155029,-1115.249390,-715.888123,27.464853,425.468140,582.850525,234.963272,291.679047,402.951904,530.850647,288.951904,-4.718141,-105.109398,-429.210052,-680.149597,-1052.712402,-1307.367065,-1760.873535,-2100.548828,-2181.881592,-2257.447266,-2646.501709,-3128.809570,-3301.867188,-3478.256836,-3988.432617,-3921.739014,-3749.249268,-3581.327393,-3264.457275,-3452.771973,-3815.990479,-4287.216797,-4246.970215,-4877.224121,-5123.083984,-5215.918945,-5368.438965,-5451.462402,-5565.712402,-5604.698730,-5669.357422,-5696.396973,-5726.236328,-5742.874023,-5745.758789,-5741.899414,-5743.632324,-5735.875000,-5737.870117,-5723.798340,-5717.152344,-5716.512695,-5697.976074,-5650.421875,-5585.695801,-5511.006836,-5459.261230,-5426.577637,-5376.748047,-5349.207031,-5304.050293,-5275.573730,-5311.198242,-5258.198242,-5311.685547,-5234.017090,-5208.234375,-5197.104492,-5213.738770,-5158.901855,-5144.806641,-5126.871094,-5111.869141,-5098.005859,-5048.140137,-5025.724609
-4245.247070,-4168.318359,-4057.062744,-3931.812012,-3744.274658,-3589.459229,-3545.803955,-3616.355713,-3832.124268,-3990.737549,-4031.870117,-4177.108398,-4228.895508,-4245.029297,-4229.630859,-4329.302246,-4346.652832,-4371.106934,-4331.810547,-4290.347168,-4231.750000,-4012.203613,-3757.694580,-3869.168701,-3669.098877,-3437.156982,-3435.179443,-3336.490479,-3240.402832,-3223.316406,-3059.331543,-3204.436279,-3322.150146,-3344.496338,-3458.264893,-4020.502686,-4305.573730,-4320.275879,-4424.300781,-4506.989746,-4508.732422,-4586.383789,-4578.198730,-4539.699219,-4352.780273,-3389.479492,-2944.389893,-2491.498779,-2300.292969,-2549.614746,-2451.381592,-2457.617676,-2279.686035,-1310.673706,-810.892578,-47.205910,38.510582,108.601357,347.353607,209.184006,274.586090,269.299072,589.724792,-6.857696,0.052527,21.986593,-535.485107,-800.697510,-725.953918,-731.906616,-783.102051,-831.244019,-858.274902,-914.192688,-1864.739258,-2647.906494,-2438.633789,-3560.294189,-3735.626953,-3634.904541,-3322.486572,-3366.629395,-3537.596924,-3695.113770,-4008.849609,-4269.921387,-4542.721680,-4638.929688,-4757.348633,-4755.816895,-4975.703613,-5237.190430,-5361.319336,-5512.073730,-5635.823730,-5714.868164,-5733.979004,-5760.019531,-5775.388672,-5772.355469,-5766.492676,-5768.353027,-5770.645020,-5762.692871,-5756.326660,-5739.119141,-5675.680176,-5555.986816,-5490.409668,-5459.775879,-5475.783203,-5399.073242,-5353.874023,-5340.906250,-5314.195312,-5316.686523,-5310.115723,-5366.176758,-5273.437500,-5261.781738,-5247.630859,-5050.562012,-5179.349121,-5187.805176,-5157.617188,-4888.947266,-5072.216797,-4791.095703,-4262.316895
-4293.880859,-4207.488770,-4148.232422,-3970.819336,-3895.788330,-3829.778320,-3863.246094,-3808.374023,-3914.508057,-4106.643555,-4203.059570,-4296.632324,-4361.051758,-4366.400879,-4371.193359,-4426.383301,-4434.123535,-4418.424316,-4384.743652,-4406.627930,-4324.683105,-4206.777832,-4062.346191,-3998.064941,-4064.714111,-3665.545410,-3635.049316,-3554.333740,-3612.363525,-3276.060059,-3334.317627,-3239.450684,-3385.720947,-3376.632324,-3554.910889,-3851.607910,-4308.395508,-4465.374512,-4550.274902,-4625.256348,-4636.560059,-4611.242676,-4709.469238,-4755.473145,-4037.809814,-2998.083740,-3074.478271,-2867.781494,-2439.761475,-2164.467529,-2576.103271,-2600.579590,-2343.851562,-1969.298096,-1052.423584,-601.037659,3.066245,325.211273,259.915405,104.677605,56.140419,249.264130,410.236053,101.994957,51.033318,-5.627553,-223.548355,-666.743591,-602.199890,-720.831970,-801.619629,-835.333923,-829.454163,-803.793579,-864.567139,-1018.474304,-1579.023682,-2745.039062,-3035.323486,-2942.288086,-2844.417969,-2879.602295,-2931.687500,-2981.126221,-3417.979004,-3746.856445,-3214.710449,-3647.618408,-3788.712158,-3795.032227,-4002.260254,-4271.494141,-4526.421875,-4842.286133,-5005.541992,-5336.968750,-5490.851074,-5403.561035,-5402.806152,-5783.924805,-5779.895996,-5784.180664,-5775.237793,-5340.775391,-5770.415527,-5751.437012,-5663.331543,-5519.200684,-5481.737305,-5443.609863,-5425.910645,-5429.031250,-5395.494141,-5396.395020,-5384.579590,-5400.695801,-5356.558594,-5362.556641,-5398.978516,-5326.720215,-5307.610352,-5295.024414,-5155.254395,-5256.686523,-5228.477051,-5216.310547,-5192.941895,-5148.856934,-5084.399902
-4361.237793,-4267.128906,-4167.437500,-4090.890137,-4076.120117,-4068.931641,-4012.200195,-3983.137207,-4119.478027,-4193.413574,-4316.700195,-4364.770020,-4429.478027,-4394.284180,-4442.901367,-4493.388184,-4447.350586,-4462.548828,-4465.278809,-4486.170898,-4492.751465,-4401.053711,-4284.583008,-4288.847656,-4079.053223,-3927.019043,-3749.419189,-3806.545410,-3770.601562,-3392.171387,-3436.509033,-3306.351318,-3390.156738,-3532.818115,-3710.995850,-3935.397461,-4080.201660,-4299.733887,-4563.218262,-4648.302734,-4683.844238,-4711.367676,-4751.895508,-4767.006348,-4625.674316,-3528.990723,-3065.430664,-3003.830322,-2626.651367,-2616.966309,-2147.441162,-1917.340210,-2340.241211,-2499.019775,-1378.491455,-959.831604,-651.682373,72.928261,181.252975,4.374864,-1.695804,35.901089,138.549286,382.631195,127.817345,2.837213,-24.218742,-477.557129,-545.300903,-710.975708,-777.331665,-783.111023,-603.528564,-586.877625,-640.004150,-897.325623,-1041.004761,-1195.886108,-2399.476318,-2500.204834,-2468.238525,-2270.219727,-2447.216797,-2588.078857,-2760.142578,-2015.812012,-1569.426514,-2404.457275,-2240.955811,-2272.607422,-2514.179199,-2815.684326,-3305.865723,-3715.392090,-3881.408447,-4509.332520,-5056.351562,-5054.375488,-4775.228516,-5446.347168,-5280.866211,-5172.392090,-5171.363281,-4472.235840,-4934.014648,-5192.507812,-5568.812988,-5440.162109,-5427.441406,-5416.440430,-5420.052246,-5455.923340,-5478.021973,-5448.929199,-5432.086426,-5425.286621,-5493.853027,-5450.378906,-5385.235352,-5372.932617,-5352.884277,-5329.931152,-5327.648926,-5300.887207,-5268.931641,-5231.692871,-5236.681641,-5195.555664,-5091.411133
-4389.205566,-4313.278809,-4228.998535,-4186.471191,-4175.727539,-4171.440918,-4137.274414,-4126.433594,-4230.495605,-4351.289551,-4379.481934,-4487.200684,-4438.410645,-4514.680664,-4543.519531,-4509.319336,-4540.520996,-4535.895996,-4545.482910,-4561.735840,-4539.201660,-4380.347656,-4486.769043,-4429.916504,-4263.104980,-4148.770020,-4001.899658,-4017.142334,-3755.842529,-3831.126221,-3677.388184,-3345.907715,-3419.719482,-3675.639893,-3745.810303,-3978.077393,-4295.640137,-4543.803711,-4607.952637,-4698.894531,-4743.317383,-4760.963379,-4765.926270,-4766.899902,-4547.600098,-3706.545166,-3623.635254,-2847.784424,-2633.478027,-2646.184814,-2334.777100,-2217.094238,-2604.065918,-2753.371582,-1952.536621,-1340.708130,-735.889709,-7.819033,6.958349,0.958413,-4.234378,0.999105,-0.324359,80.476265,310.366028,215.011383,26.579557,-53.348267,-104.188194,-488.006165,-603.592529,-660.525940,-517.005005,-330.006866,-334.228119,-646.294861,-690.078186,-905.234497,-1064.647217,-1607.992798,-1748.283203,-1282.577515,-1513.296631,-1305.782593,-1468.792603,-1788.423462,-1240.802979,-1271.768188,-1176.153687,-954.313599,-938.145691,-1501.428101,-1593.472412,-2128.529053,-2607.198730,-3323.007568,-3370.081543,-3602.521484,-4172.574219,-4756.844238,-4166.499512,-3566.130615,-3562.323242,-3924.483398,-4393.636719,-4960.320312,-5372.985352,-5384.881348,-5393.502441,-5418.076660,-5451.117676,-5503.603027,-5541.166504,-5523.980957,-5516.432617,-5494.145996,-5514.215820,-5467.444336,-5460.918457,-5422.858887,-5404.562012,-5384.662598,-5348.650391,-5328.013184,-5301.749023,-5291.326172,-5271.830078,-5259.196777,-5229.984863
-4431.908691,-4357.939453,-4323.416504,-4247.006348,-4289.031738,-4263.937012,-4265.402832,-4284.187988,-4282.830566,-4384.283203,-4434.371094,-4460.048340,-4466.873535,-4520.679688,-4546.190430,-4564.759277,-4561.251465,-4574.109863,-4612.450195,-4620.399414,-4566.108398,-4643.923340,-4669.850586,-4377.240234,-4287.197754,-4227.292969,-4141.186035,-3931.146973,-4062.721680,-3858.580322,-3924.102051,-3624.940674,-3400.468994,-3726.482666,-3831.309082,-3939.621582,-4331.113281,-4573.150879,-4659.303223,-4736.685547,-4752.082520,-4761.341309,-4759.984863,-4758.845215,-4754.030273,-3632.171875,-3735.546387,-3309.304443,-2749.185791,-2990.717041,-2768.465088,-2540.973389,-2856.538330,-2880.155273,-2748.235596,-1590.140991,-1039.818848,-528.439026,-114.721252,-261.221222,-401.453766,-452.302551,-423.293823,-2.143962,-15.462149,-24.317501,-129.243347,-206.152649,-299.196350,-652.782715,-618.057861,-625.099304,-453.997101,-271.766479,-114.408730,-132.173737,-171.815674,-406.220032,-667.715698,-948.086487,-792.129822,-909.584351,-944.329224,-1006.417908,-1044.047485,-881.423096,-943.435486,-503.246735,-504.928619,-514.094604,-527.449097,-544.803833,-552.720276,-575.837708,-1594.617920,-1931.976074,-2624.462646,-3040.107422,-3358.241699,-3237.783203,-3334.921143,-3721.025879,-4074.525391,-4464.274414,-4870.457520,-5113.819824,-5262.514160,-5305.679199,-5371.534180,-5412.107910,-5465.913574,-5551.268555,-5587.092285,-5581.783691,-5586.623047,-5566.732910,-5594.008789,-5513.308105,-5506.608398,-5476.661133,-5452.434082,-5429.858398,-5349.330078,-5386.833984,-5340.847656,-5307.763184,-5403.343262,-5296.620605,-5277.553223
-4450.219238,-4413.694336,-4361.079590,-4321.264160,-4424.060547,-4361.410156,-4380.120605,-4415.625488,-4347.410156,-4469.375977,-4487.908691,-4539.639160,-4536.762695,-4586.437988,-4566.976074,-4580.539551,-4618.216797,-4631.655273,-4651.780762,-4668.110840,-4690.456055,-4708.946289,-4678.982910,-4570.375977,-4378.832520,-4315.259766,-4203.666504,-4385.139160,-4058.605225,-4079.120117,-4011.630127,-3754.692383,-3675.351562,-3756.666016,-3940.484131,-4142.466797,-4374.420410,-4490.982910,-4699.001953,-4733.438477,-4750.003418,-4717.091797,-4747.398926,-4746.323730,-4738.219238,-4449.572266,-3981.591553,-3478.341553,-2678.606201,-2964.187012,-2984.200439,-2986.372070,-2963.512207,-2967.719482,-2784.343506,-2197.107666,-1390.170532,-825.983643,-715.578735,-394.569702,-529.700623,-515.025269,-546.667175,-587.987732,-580.312073,-549.293884,-622.706482,-662.178101,-693.117676,-693.033386,-574.083923,-516.281433,-389.253082,-201.429214,-51.303455,124.882263,-10.055685,-58.239223,-94.045456,-111.500481,20.000000,-500.504150,-460.966705,-218.608292,-165.068390,-175.857788,-307.145935,-419.863861,-511.667755,-519.992676,-528.047729,-533.319031,-553.894775,-575.783020,-593.811707,-678.315308,-1261.083984,-2007.868896,-2617.406250,-3125.359375,-4017.015381,-4309.715332,-4634.296875,-4764.043945,-4890.683105,-5044.051270,-5191.797363,-5271.502441,-5423.918457,-5508.438965,-5568.777832,-5629.917480,-5726.870605,-5658.789551,-5640.641602,-5726.917480,-5609.347656,-5538.318359,-5563.736816,-5532.854980,-5511.727051,-5464.473145,-5453.000977,-5432.102051,-5406.004883,-5381.458008,-5345.155762,-5328.403809,-5272.865234
-4512.643066,-4455.927246,-4442.124512,-4407.026855,-4492.833984,-4463.209961,-4496.225098,-4452.949707,-4490.030273,-4560.980469,-4555.893066,-4621.446289,-4575.630371,-4594.183594,-4628.376465,-4609.355469,-4646.790039,-4699.235840,-4711.116699,-4718.584961,-4730.432617,-4711.413086,-4701.122559,-4656.579590,-4558.267578,-4422.219727,-4425.743164,-4383.859863,-4091.959229,-4236.250488,-4077.538818,-4093.714355,-4025.417969,-3872.142334,-4005.531250,-4166.965332,-4418.617676,-4541.318359,-4716.144531,-4737.803223,-4742.362793,-4744.430664,-4753.044434,-4750.071777,-4758.591309,-4385.101074,-4511.708984,-3433.979492,-2831.582031,-2957.503662,-2986.960449,-2973.531006,-3047.832275,-3075.346436,-3111.394531,-2791.522217,-1704.311890,-1222.862915,-845.223450,-534.319824,-558.009399,-591.729126,-541.439819,-580.088257,-624.380676,-646.682617,-660.821777,-658.607056,-632.296082,-161.479584,-181.654449,-182.869522,-112.806885,-59.931374,10.987309,155.524948,263.523499,135.115097,179.440933,349.228912,632.693848,355.928040,673.451233,97.580696,480.806366,157.216492,-135.392136,-367.745483,-506.607758,-513.088440,-504.963654,-498.159973,-503.866730,-546.732971,-604.570984,-651.681519,-736.601807,-1898.618164,-2695.761963,-3364.331299,-3847.003174,-4215.904297,-4154.531738,-4685.789062,-4917.847656,-4838.087891,-4528.327148,-5126.970215,-5206.610352,-5397.584961,-5624.464844,-5670.702148,-5678.830566,-5687.731934,-5672.093750,-5660.727051,-5661.935059,-5641.179688,-5636.940430,-5594.023438,-5565.236328,-5539.675293,-5511.170410,-5481.652344,-5449.011719,-5429.230957,-5395.906250,-5379.509766,-5301.856934
-4483.720215,-4508.066406,-4496.219238,-4485.139160,-4561.876465,-4539.850586,-4550.187988,-4590.621582,-4663.119629,-4650.430176,-4615.563477,-4639.808594,-4618.517578,-4604.892090,-4606.398926,-4620.240234,-4630.681641,-4649.601074,-4685.668945,-4700.907715,-4708.797852,-4707.230469,-4707.299316,-4633.789551,-4593.907227,-4581.343750,-4573.995605,-4477.501465,-4503.288574,-4313.396973,-4243.294922,-4276.570312,-4152.889160,-4003.339844,-4159.682617,-4241.059082,-4363.208008,-4588.305176,-4721.766602,-4724.955078,-4727.983887,-4732.124023,-4733.563965,-4728.470215,-4735.542969,-4749.941406,-4370.731934,-4202.948242,-3218.227539,-2885.173096,-2973.885742,-3140.914795,-3108.494385,-3164.943115,-3265.560547,-3054.289307,-3031.898682,-2096.362305,-937.396545,-542.606018,-531.588623,-549.058289,-582.384033,-590.433472,-600.430298,-591.205139,-566.019836,-327.193726,-58.414265,-65.757240,-67.384224,-64.174118,-58.686298,-25.375689,115.440086,178.734390,229.511566,76.758415,8.585679,128.641571,443.493439,965.841003,1435.067383,640.045349,280.393372,-81.523857,-212.945114,-333.704376,-407.698914,-465.837677,-458.213684,-449.699585,-441.534637,-449.267639,-511.906464,-632.451416,-751.511230,-1346.599731,-2468.695068,-3144.100342,-3671.097168,-4018.528564,-4287.812988,-4392.913086,-3913.645752,-4386.046387,-4621.247559,-4472.079590,-4499.521973,-4856.835449,-5097.727051,-5495.295898,-5685.666992,-5718.877441,-5688.968750,-5675.586426,-5711.434082,-5696.919922,-5679.359863,-5650.931152,-5643.880371,-5612.921387,-5456.189453,-5531.764648,-5527.963867,-5475.625488,-5531.778320,-5409.560059,-5380.361816
-4523.408691,-4509.662109,-4596.750488,-4548.426270,-4583.684082,-4592.081543,-4644.867676,-4659.533203,-4663.963379,-4687.396484,-4670.464844,-4626.248047,-4624.609375,-4618.691406,-4659.606934,-4656.608887,-4667.651367,-4673.775391,-4684.107910,-4699.712891,-4703.067383,-4707.051758,-4713.291016,-4678.390137,-4655.685059,-4665.605957,-4659.268555,-4648.020508,-4609.851562,-4473.729980,-4372.483398,-4342.383301,-4256.549805,-4206.970703,-4245.458496,-4289.505859,-4416.346680,-4698.987305,-4711.435059,-4708.774902,-4713.029297,-4722.956055,-4717.342285,-4720.225586,-4721.593750,-4723.216309,-4646.106445,-4377.781738,-3778.772461,-2653.378418,-3685.737305,-3096.778320,-3114.801758,-3254.954834,-3421.114502,-3403.763672,-3098.884766,-2773.713623,-1780.584595,-542.014404,-608.438049,-504.399048,-620.478638,-561.991577,-530.843445,-487.762695,-282.515411,-52.149979,-53.323940,-57.270554,-55.425343,-62.948521,-65.214066,-63.669422,-64.676392,-94.257545,-179.655380,-177.062332,-151.755081,-79.846512,-22.285675,-0.089215,45.193775,-1.108922,-108.463493,-255.479279,-250.438126,-134.958481,-196.541977,-313.487457,-327.918945,-332.715576,-342.965149,-357.058136,-396.933441,-541.120300,-715.304932,-893.808716,-1872.044678,-2709.901367,-3311.332031,-3719.247070,-3899.506836,-3570.866455,-4097.311035,-4269.105957,-4351.207520,-4441.712891,-4468.021484,-4763.633301,-5097.598145,-5138.643555,-5087.334961,-5539.805176,-5721.566895,-5732.616699,-5937.991699,-5761.002441,-5684.924805,-5678.065918,-5681.289062,-5669.484863,-5631.277344,-5595.269531,-5579.867676,-5533.338379,-5496.001465,-5491.080566,-5396.740723
-4536.907227,-4581.675781,-4635.575195,-4652.696289,-4633.639648,-4639.423340,-4684.350098,-4687.733887,-4696.739258,-4682.749512,-4656.611328,-4687.231445,-4661.782715,-4664.245117,-4670.924316,-4680.771973,-4684.081543,-4689.637695,-4701.874512,-4699.854004,-4699.931152,-4704.033203,-4708.960938,-4710.099609,-4700.146973,-4709.490723,-4708.359375,-4701.317383,-4665.691406,-4607.735352,-4519.474121,-4554.529785,-4495.386719,-4532.961426,-4539.937012,-4470.199707,-4594.510254,-4704.548828,-4699.803223,-4701.900879,-4699.964844,-4698.154785,-4702.912598,-4695.229004,-4679.040527,-4694.294922,-4616.393066,-4558.377441,-4372.714844,-4117.673340,-3739.938477,-3125.135742,-3176.451660,-3335.267578,-3460.669922,-3304.509766,-3200.128174,-2700.666260,-2685.953369,-1552.439819,-410.434875,-537.305725,-568.591003,-513.909485,-470.524719,-294.437531,-47.252136,-50.726357,-55.195744,-59.213367,-65.432922,-112.881226,-161.611649,-262.837189,-328.501678,-727.718140,-521.196350,-446.296265,-300.936279,-215.429672,-106.050934,-53.757908,-205.528732,-229.947983,-241.194565,-214.366135,-46.804089,117.622459,134.797211,-111.092094,-161.464813,-160.632141,-172.041718,-187.858612,-233.710983,-341.061035,-546.330261,-788.554565,-1009.594482,-1873.339355,-2627.275635,-3028.153809,-3341.572754,-3732.378662,-3874.655518,-4122.955078,-4342.035156,-4527.179199,-4616.144043,-4668.425781,-4717.814453,-4780.499023,-5189.786133,-5180.993164,-5641.002441,-5740.034668,-5731.867676,-5714.441895,-5695.863770,-5754.743652,-5687.870117,-5675.354980,-5668.901855,-5632.781250,-5593.256348,-5555.863770,-5524.339355,-5491.219238,-5454.087402
-4607.238281,-4664.310059,-4709.428711,-4706.597168,-4726.110840,-4719.110352,-4709.506348,-4698.373535,-4695.929199,-4685.770508,-4691.201660,-4676.639160,-4673.711914,-4672.423340,-4677.173828,-4678.666992,-4684.318848,-4653.606934,-4655.416504,-4697.298340,-4694.173828,-4697.660645,-4717.672363,-4685.782715,-4668.544434,-4690.727051,-4698.009277,-4703.852051,-4495.119629,-4693.241699,-4694.492188,-4695.969238,-4695.044922,-4694.202637,-4692.470215,-4704.397461,-4705.409180,-4693.483887,-4674.765137,-4679.892578,-4676.511230,-4661.714844,-4609.157715,-4591.726562,-4623.838867,-4547.291504,-4459.384766,-4456.428711,-4481.082520,-4512.777832,-4002.195801,-3482.933350,-3546.002686,-3729.621094,-3619.619629,-3308.478027,-3398.685303,-3124.703613,-2760.864502,-2483.342529,-816.236816,-579.748779,-575.273560,-489.077789,-444.643158,-46.841793,-46.534538,-49.046696,-50.677853,-123.680130,-401.303070,-410.066711,-558.871948,-1137.674194,-1099.786743,-1001.328796,-767.236755,-503.716888,-304.981964,-108.562538,-67.159149,-79.661964,-162.856979,-189.112259,-215.846741,-65.408722,90.062988,583.485535,677.488037,121.975418,-79.175850,-85.505585,-97.514694,-19.369045,-89.039009,-142.631317,-344.485779,-617.701660,-873.292419,-1040.893921,-1477.721680,-2452.306885,-3088.415771,-3469.956543,-3781.613770,-4021.974854,-4188.602539,-4103.511230,-4503.706055,-4692.023926,-4682.619141,-4745.251953,-4861.670410,-5207.949219,-5112.159668,-5747.968750,-5744.558594,-5742.248535,-5732.288086,-5718.673828,-5706.360840,-5672.354004,-5687.549805,-5667.333496,-5629.956543,-5592.065918,-5542.905762,-5519.291992,-5493.959961
-4739.909668,-4734.653320,-4720.478516,-4717.670898,-4712.294922,-4713.960938,-4706.730957,-4708.167969,-4694.953613,-4650.980957,-4675.286621,-4688.144043,-4654.964844,-4666.753906,-4672.896484,-4670.968750,-4684.283691,-4679.541504,-4688.428223,-4685.905762,-4688.672852,-4671.618164,-4680.147461,-4672.680176,-4664.826172,-4684.638672,-4690.224609,-4692.190430,-4686.003906,-4680.332520,-4674.529785,-4673.252930,-4668.714844,-4669.948242,-4671.254395,-4665.804688,-4639.184082,-4676.208984,-4653.940918,-4635.650391,-4589.199707,-4578.561035,-4556.394043,-4465.711914,-4393.524902,-4331.163574,-4314.186523,-4332.960449,-4383.054199,-4470.649902,-4436.717285,-3938.564697,-3685.839844,-3934.061279,-3688.995117,-3684.605225,-3752.070557,-3288.385742,-2991.326416,-2718.917969,-1783.310669,-531.331299,-546.868835,-489.533234,-404.576782,-47.589359,-47.778748,-50.756500,-458.765289,-1068.852417,-1380.911987,-1444.145996,-1597.333984,-1705.525635,-1224.080078,-1081.065552,-711.631897,-466.146301,-71.702644,182.201126,164.682251,120.789337,-22.378637,-55.900406,-93.105751,-47.581013,116.350693,913.205933,1030.250610,212.934357,-15.714009,1.461848,53.932846,199.585999,258.807892,117.744957,-129.400497,-364.761230,-666.184082,-939.793091,-1157.957642,-1738.562744,-2559.186768,-2993.528809,-3376.447510,-3470.502441,-3508.181396,-3600.592773,-4076.700928,-4437.636230,-4739.150391,-4696.926270,-4797.223633,-5160.066895,-5076.501465,-5374.454102,-5440.939453,-5748.731934,-5752.284668,-5742.339355,-5733.314453,-5720.037109,-5710.221191,-5694.408691,-5667.973145,-5630.241699,-5577.727051,-5556.697266,-5533.510254
-4735.670410,-4696.354004,-4692.118652,-4692.074219,-4705.008301,-4705.896973,-4713.461914,-4696.121094,-4689.812012,-4676.587402,-4667.569336,-4668.655273,-4668.272461,-4665.849121,-4661.888672,-4663.773438,-4657.486816,-4664.193848,-4676.400879,-4677.879395,-4670.421875,-4676.987305,-4678.149902,-4674.449219,-4670.334961,-4674.765137,-4671.982422,-4667.425293,-4665.826660,-4660.626465,-4657.480957,-4651.475098,-4654.950684,-4645.803711,-4627.670410,-4619.062012,-4637.777832,-4632.885742,-4632.388672,-4543.584473,-4507.101074,-4541.537598,-4433.926270,-4331.726562,-4228.413086,-4162.208008,-4190.479980,-4246.854004,-4295.437500,-4377.992188,-4430.328613,-4492.998047,-3989.313232,-3548.898926,-3825.718018,-3947.952881,-3972.597168,-3808.381592,-3672.535889,-3086.381592,-2508.555908,-917.156067,-563.042725,-506.908661,-552.897095,-47.719753,-629.833191,-994.912903,-1292.345215,-1724.348267,-1633.486694,-1397.900513,-1464.173096,-1854.558472,-1980.337402,-1197.736572,-1019.962341,-540.844727,-258.888611,-3.116652,510.938049,575.714661,307.343903,-16.933071,-69.476570,-57.581966,-9.619346,428.774780,792.440125,305.458374,37.681473,83.959312,186.734131,432.677032,640.403687,570.544006,215.378342,-32.473915,-398.589966,-718.564636,-1074.773926,-1320.356689,-1511.881958,-1615.437134,-1684.577271,-2089.704102,-2361.911621,-2821.342773,-3435.520996,-3766.920166,-4113.649414,-4302.018066,-4406.853027,-4880.328125,-4857.692871,-4918.882812,-4910.562500,-5711.347656,-5749.019531,-5746.515137,-5744.730957,-5744.520508,-5728.383301,-5709.807129,-5681.179688,-5651.215820,-5600.418457,-5570.338379,-5548.297852
-4719.161621,-4712.666992,-4701.427246,-4691.223633,-4695.112793,-4693.734863,-4688.321289,-4679.809082,-4672.485840,-4660.395996,-4655.875000,-4670.144043,-4668.408203,-4676.736816,-4725.196777,-4683.748535,-4670.653320,-4669.483887,-4671.846680,-4662.996094,-4672.744141,-4663.363770,-4660.033691,-4658.332520,-4654.574219,-4653.020996,-4655.817871,-4654.173828,-4649.306641,-4639.235352,-4637.080566,-4626.858398,-4608.385254,-4607.264160,-4603.145508,-4596.188477,-4591.937012,-4589.333496,-4562.530762,-4499.749512,-4463.649414,-4459.132812,-4350.684570,-4270.163086,-4124.233398,-4095.427490,-4141.073730,-4220.234375,-4238.426758,-4305.550781,-4384.682617,-4445.290039,-3988.587402,-3992.926514,-3532.788574,-3964.537109,-4050.764648,-4023.263428,-3833.091797,-3568.347656,-2987.511719,-1753.305908,-468.234161,-549.410034,-590.252014,-698.121887,-817.259338,-1512.032959,-2179.808350,-2311.991943,-2493.256836,-1847.192505,-1955.819458,-2303.348389,-2459.533203,-1709.465454,-1189.028198,-838.109619,-650.963074,-289.213989,215.688782,423.091492,858.708130,152.843292,-64.532967,-63.358124,-67.407967,-0.380857,387.438782,242.703537,6.827809,113.229828,298.148254,670.027771,1185.361206,1293.154419,769.888611,485.567017,166.611435,-61.541756,-575.450500,-1132.767700,-1348.756592,-1475.738403,-1517.958130,-1566.874878,-1610.931885,-1809.533813,-2515.142334,-2813.136230,-3155.879883,-3351.201660,-3840.293945,-4333.830078,-4641.516113,-4890.924316,-5193.581543,-5152.946777,-5733.136719,-5732.070801,-5712.595215,-5729.351074,-5734.258789,-5719.351074,-5694.865234,-5655.948730,-5611.251465,-5572.289551,-5565.572266
-4712.316895,-4691.297852,-4696.244629,-4697.951660,-4702.094727,-4705.110840,-4711.854492,-4709.821289,-4692.308594,-4690.140137,-4682.721680,-4670.867676,-4669.729004,-4665.777344,-4667.229980,-4666.330566,-4656.674316,-4656.880371,-4658.915039,-4657.523926,-4657.487305,-4654.439453,-4652.370117,-4647.469727,-4642.279297,-4643.809082,-4643.336426,-4636.666992,-4633.014648,-4624.271484,-4617.309082,-4621.815918,-4605.018555,-4577.160645,-4568.071777,-4542.176758,-4551.388184,-4518.349121,-4402.818848,-4439.760254,-4431.944824,-4434.230957,-4334.031738,-4211.051270,-4044.479492,-3329.862549,-4080.296631,-4179.009277,-4192.669922,-4274.754883,-4340.478516,-4429.996582,-4496.939941,-4070.038086,-4171.777344,-4207.628906,-4037.208740,-4115.347168,-4165.636230,-4043.944092,-3481.471680,-2774.836182,-1530.262329,-526.595215,-595.783752,-835.377197,-1585.101196,-1955.730835,-2365.837891,-2534.166504,-2701.704834,-2653.745850,-2538.105713,-2568.651855,-2646.416016,-2463.749268,-1874.932739,-840.719360,-688.538818,-368.540497,328.905029,311.969788,301.734894,-122.101562,-105.157249,-145.234344,-105.749596,-82.967819,-73.906487,-58.156666,-22.652773,108.424667,428.062592,926.971558,1692.747070,2330.418701,1675.288086,1374.083374,1103.670410,356.914154,-30.612461,-687.901123,-1114.676025,-1311.386475,-1426.298096,-1539.091064,-1600.633423,-1646.295776,-1872.562256,-2115.563721,-2807.762939,-2935.169189,-3243.094482,-3343.483154,-3951.652344,-4605.373047,-5034.264160,-5221.767090,-5361.156250,-5458.350098,-5586.037109,-5704.173340,-5647.237793,-5619.554688,-5661.222656,-5649.083984,-5622.358887,-5564.569336,-5484.479004
-4716.045410,-4714.693359,-4713.811035,-4713.912109,-4754.108398,-4703.125000,-4694.035645,-4689.852539,-4685.416992,-4679.984863,-4679.523438,-4675.469238,-4666.855957,-4657.913086,-4651.095703,-4658.035156,-4657.999512,-4659.391602,-4649.084473,-4643.104492,-4637.407715,-4641.884277,-4638.800781,-4638.892090,-4633.225586,-4631.480469,-4627.598145,-4625.572266,-4622.176270,-4619.661621,-4610.014160,-4606.612793,-4603.637695,-4567.034668,-4551.122559,-4507.858887,-4515.228516,-4409.373047,-4343.883301,-4359.145508,-4390.596191,-4368.960449,-4217.511230,-4043.595215,-3973.217285,-3958.806641,-4014.577148,-4081.819092,-4150.265137,-4200.640137,-4305.744141,-4411.020020,-4596.286621,-4383.885742,-4214.813477,-4435.333008,-4280.009277,-4181.887695,-4248.782227,-4315.594238,-4110.143555,-3634.514648,-2430.551758,-1818.495361,-2102.952148,-2700.089600,-2988.664551,-3073.759766,-2926.864502,-3393.333008,-3032.376465,-2874.139648,-2797.469727,-2784.621826,-2535.876465,-2512.194092,-1630.818115,-610.396790,-652.061829,-432.217957,-304.553680,-217.356583,-230.582397,-242.808472,-249.994141,-142.678101,-263.801422,-199.382660,-159.333069,-91.322006,-63.504440,167.655212,668.385681,1517.186890,2670.023193,2451.927246,2145.081543,1724.783203,994.455566,451.037842,-51.429600,-953.276001,-1020.824280,-1259.270508,-1448.819092,-1580.287109,-1626.166016,-1693.779297,-1687.768066,-1816.259644,-1950.644653,-2037.510498,-3060.833740,-3225.905273,-3399.343750,-3695.235352,-4657.387695,-5073.729004,-4719.840332,-4829.347656,-5185.382812,-4790.237305,-4972.509277,-5451.501465,-5675.159668,-5620.305176,-5597.428711,-5568.192383,-5533.135742
-4718.864258,-4715.239746,-4711.778809,-4707.931152,-4708.057617,-4698.497559,-4696.116699,-4692.507812,-4679.852051,-4675.371094,-4666.240234,-4666.466309,-4663.729980,-4657.426270,-4673.560547,-4666.834473,-4669.322266,-4657.887207,-4623.728516,-4623.627930,-4626.714355,-4627.215332,-4628.781250,-4621.910156,-4624.180176,-4610.689941,-4614.316895,-4612.831543,-4613.986816,-4598.316895,-4604.736816,-4607.302246,-4556.706055,-4550.446289,-4520.489746,-4475.206055,-4430.209473,-4419.940918,-4362.062500,-4386.106934,-4373.476074,-4310.162109,-4155.494141,-4094.866211,-3954.048584,-3936.067383,-3955.741943,-4008.528320,-4074.322266,-4164.108398,-4310.888184,-4430.375977,-4557.288086,-4590.477539,-4624.207520,-4431.740723,-4629.797363,-4576.400391,-4539.145508,-4460.662598,-4521.891113,-4295.953125,-3957.782471,-2804.884277,-2980.318604,-3496.113770,-4055.951660,-3777.296631,-3284.464844,-3350.128174,-2812.084473,-3173.412598,-3117.514893,-3019.427979,-3001.996582,-2566.102295,-2053.114502,-618.791016,-647.561768,-556.153015,-468.384247,-383.657043,-370.163757,-345.647675,-342.136353,-303.580994,-302.217773,-217.306427,-188.747559,-200.168320,-92.984863,180.744629,1067.457275,1589.055908,1361.123169,910.379944,442.442200,286.316132,125.181198,-77.204712,-906.368042,-1269.692871,-1219.116333,-1418.061768,-1596.910767,-1704.684204,-1749.612305,-1816.285156,-1842.360718,-1865.673096,-1894.979370,-1924.044189,-1978.710938,-2205.351562,-2513.947998,-2839.234375,-3525.988770,-3473.401611,-3278.653320,-3626.605469,-3583.470947,-3856.909424,-4232.282715,-4981.848633,-5642.663574,-5599.091309,-5597.656738,-5572.506836,-5572.004395
-4725.301758,-4716.630859,-4708.652344,-4696.204590,-4691.130371,-4685.118164,-4680.808594,-4681.098145,-4680.222656,-4675.910156,-4673.140625,-4673.163574,-4664.039551,-4660.784668,-4640.919922,-4635.510254,-4628.484375,-4625.345215,-4635.200684,-4663.729492,-4610.165039,-4656.348145,-4661.938965,-4608.347656,-4603.354004,-4604.894531,-4597.917480,-4597.756836,-4602.574707,-4604.480469,-4604.724609,-4597.327148,-4230.130371,-4505.038086,-4499.318359,-4474.755371,-4309.402344,-4413.077148,-4387.709473,-4389.603516,-4094.043213,-4189.213379,-4153.735840,-4006.201416,-3865.480469,-3927.241943,-3932.713867,-3980.529053,-4079.996094,-4201.629395,-4311.135742,-4451.310547,-4390.183594,-4587.407715,-4612.333496,-4637.951660,-4653.917969,-4669.577148,-4703.071289,-4640.907715,-4717.730957,-4678.137207,-4513.157227,-3970.783203,-3899.520752,-4595.579102,-4249.711914,-4333.193359,-4135.094727,-3124.454590,-3318.376953,-3726.208984,-3769.822266,-3051.063232,-2725.827881,-2544.567383,-2159.941406,-644.476440,-669.157349,-653.147339,-556.037354,-524.386230,-414.754852,-378.097626,-390.870087,-285.608917,-158.204712,-99.360497,0.000000,-147.628311,-186.934967,30.983089,378.860229,398.479065,197.857864,-98.497299,-101.311584,-115.477264,-736.569519,-1079.775269,-1469.523193,-1605.866943,-1703.092041,-1719.009888,-1855.912476,-1887.322510,-1949.325317,-1994.182495,-2005.822510,-1995.595337,-1957.732056,-2023.574707,-1988.068970,-1933.413696,-2018.412964,-2171.850098,-2420.412109,-2321.657959,-2558.679932,-2830.492188,-3287.943359,-3440.714844,-4135.395020,-4446.261230,-5086.518066,-5529.745605,-5576.714355,-5548.637695,-5549.491211
-4708.423340,-4703.520996,-4706.599609,-4704.446777,-4700.165527,-4694.200684,-4691.444824,-4686.334961,-4694.378418,-4685.784180,-4686.985840,-4671.161133,-4664.430664,-4658.636719,-4640.378418,-4628.323730,-4640.647461,-4618.817871,-4621.444336,-4615.097168,-4616.133789,-4607.475586,-4595.301270,-4602.154785,-4599.406738,-4601.966797,-4594.692871,-4589.959473,-4589.080566,-4589.753418,-4599.084473,-4593.941406,-3935.346680,-4455.346191,-4451.111816,-4426.651855,-4354.187988,-4390.313965,-4227.636230,-4376.096680,-4325.455566,-4243.086426,-4097.215820,-3948.870117,-4093.016602,-4044.832275,-4004.956543,-4047.184570,-4145.606934,-4262.934570,-4368.760254,-4480.075195,-4536.313965,-4572.075195,-4587.483398,-4608.629883,-4628.007324,-4668.275879,-4704.633301,-4731.362793,-4767.197266,-4788.872559,-4583.882812,-4490.231445,-4804.050293,-4809.891602,-4260.841797,-4378.146484,-4391.557129,-4375.511230,-4316.039551,-4293.762695,-4078.019775,-2845.588135,-2483.303467,-2360.428955,-2009.880737,-735.088135,-681.627319,-697.002380,-618.931091,-576.035156,-430.416016,-433.715668,-265.036896,-130.691299,0.000000,134.556839,435.865814,-146.620575,-284.970001,-116.352669,-63.335781,-327.127747,-392.016907,-684.053833,-919.117371,-1187.667725,-1475.371826,-1698.825073,-1819.043091,-1919.147095,-2011.715454,-2124.695068,-2184.876953,-2215.645752,-2188.423340,-2679.983643,-2866.664062,-3076.535645,-2651.182373,-2254.118164,-2182.301758,-2071.012451,-2388.714355,-2491.671631,-2554.061279,-2590.293701,-2955.689209,-3095.287354,-3168.487061,-4637.816895,-4798.292480,-4923.745605,-5103.147461,-5576.221191,-5563.365723,-5550.990723,-5513.276367
-4714.867188,-4710.803711,-4709.718750,-4709.892578,-4704.009277,-4690.539551,-4679.255371,-4670.319336,-4668.878418,-4655.280762,-4659.088867,-4647.167969,-4645.127930,-4632.412109,-4630.710449,-4631.774902,-4624.468750,-4619.519531,-4620.619629,-4613.794434,-4593.516113,-4601.262207,-4597.421387,-4602.689453,-4598.928223,-4594.375488,-4581.133301,-4569.369141,-4577.900879,-4582.745117,-4585.402832,-4590.665527,-4575.840820,-4523.062988,-4495.211426,-4384.962402,-4341.828613,-4328.136230,-4326.587402,-4311.815430,-4282.059570,-4120.608887,-4119.973633,-4144.019043,-4189.174805,-4156.027832,-3868.679688,-4083.532715,-3940.295654,-4348.603027,-4402.798340,-4514.788086,-4519.483887,-4550.068359,-4556.207031,-4580.446289,-4606.727051,-4640.316895,-4678.263672,-4697.104980,-4750.804199,-4781.775391,-4813.216309,-4829.395020,-4832.843262,-4852.758301,-4367.303711,-4564.187012,-4489.632812,-4433.817871,-4382.994629,-4261.583008,-3978.989502,-3391.831543,-2481.788574,-2157.641113,-1815.570435,-616.627747,-683.535889,-718.229248,-698.474487,-618.733337,-458.786499,-368.168671,-127.264549,-87.699158,39.990463,-145.715118,-125.618095,-555.383850,-539.830200,-668.709045,-788.862671,-874.120544,-1007.340515,-1401.368896,-1592.323853,-1759.989380,-1893.260620,-1902.398315,-1940.231201,-2097.433350,-2386.340088,-2669.279785,-2769.604492,-2949.726074,-3257.437744,-3459.570068,-3663.817627,-3766.483643,-3821.927246,-3848.365967,-3671.013916,-2936.420410,-2890.812744,-2809.523193,-2815.457764,-2839.423828,-3042.137939,-3363.045166,-4299.695801,-5045.620117,-5011.271973,-5174.375488,-5359.229492,-5562.791016,-5525.529785,-5514.050781,-5491.623047
-4709.389160,-4708.768555,-4711.783203,-4711.622070,-4699.209473,-4690.485840,-4684.468750,-4677.968750,-4670.426758,-4666.499512,-4662.002441,-4656.068848,-4651.814941,-4646.187500,-4641.854004,-4635.364258,-4631.418457,-4615.935547,-4611.590332,-4608.974609,-4608.937988,-4607.623047,-4595.586914,-4585.678223,-4580.318848,-4582.412109,-4576.475098,-4574.451172,-4569.856445,-4569.050781,-4567.750977,-4573.394043,-4549.418945,-4499.960449,-4487.073242,-4444.534180,-4413.402832,-4363.385742,-4372.330566,-4346.604980,-4252.280273,-4164.813477,-4272.213867,-4163.090332,-4178.118652,-4223.138672,-3877.235596,-4198.966309,-4322.378418,-4382.248047,-4328.457520,-4347.805176,-4507.907227,-4525.518555,-4533.824707,-4535.102539,-4583.670898,-4614.166992,-4643.149902,-4671.550293,-4724.853027,-4767.364746,-4810.736328,-4822.059570,-4842.908203,-4852.744629,-4856.784180,-4673.802246,-4374.548828,-4251.156250,-4288.906250,-4256.453613,-4107.912598,-3679.373291,-2810.637207,-1735.783203,-1167.579834,-609.756104,-670.072144,-732.986084,-762.479309,-735.378540,-669.549744,-582.997131,-576.882568,-673.040710,-783.887146,-792.774658,-1022.987854,-1120.179565,-1332.336914,-1455.514282,-1483.194824,-1510.464233,-1658.511963,-1772.355469,-1865.621826,-2171.296631,-2069.504639,-926.249268,-906.348816,-924.444275,-940.819336,-1939.200928,-2375.100830,-2765.947510,-3010.469238,-3225.100342,-2781.426514,-2768.135010,-3077.729248,-3369.769531,-3749.799805,-3961.834717,-4363.071777,-4588.079102,-4061.468506,-3844.934570,-3900.395752,-3985.895508,-4632.639648,-4922.876953,-5311.602539,-5449.502441,-5493.839844,-5480.242676,-5530.118652,-5505.218262,-5491.022949
-4703.299316,-4696.067383,-4696.052734,-4249.999512,-4691.350098,-4689.570801,-4679.038086,-4662.931152,-4659.699707,-4653.451172,-4646.867676,-4642.634766,-4634.503418,-4638.063477,-4623.010742,-4616.245117,-4619.444824,-4618.260254,-4619.473633,-4613.141602,-4601.429688,-4585.117188,-4569.819336,-4577.659668,-4570.079590,-4568.791992,-4571.981934,-4564.857910,-4560.989258,-4553.336426,-4545.685059,-4542.199219,-4536.491211,-4523.394531,-4506.745117,-4467.103027,-4443.386230,-4390.806152,-4387.871094,-4249.032227,-4223.622559,-4259.250488,-4254.472656,-4250.488770,-4242.499512,-4227.783691,-4250.452148,-4338.505371,-4363.987793,-4397.199219,-4440.913574,-4467.371094,-4494.531738,-4494.672363,-4509.914551,-4517.912109,-4565.631348,-4590.488770,-4622.361816,-4653.210449,-4688.232910,-4737.430176,-4782.224121,-4803.857910,-4823.244629,-4819.123535,-4731.162109,-4679.826660,-4547.924805,-4435.286133,-4332.416992,-4337.594238,-3886.404541,-3134.700195,-2465.965332,-1686.854126,-1531.243774,-1328.446289,-596.393372,-714.470276,-786.477539,-850.840576,-926.663269,-987.928040,-1080.401489,-1294.539795,-1787.631836,-1626.430176,-1675.585693,-2169.782959,-1859.811890,-1712.919189,-1758.931641,-1830.946899,-1903.572632,-1914.294922,-2356.582275,-2254.677246,-1245.592407,-885.782532,-835.763794,-822.876892,-843.763733,-873.460632,-1253.932007,-1290.480103,-1463.101807,-1764.236938,-2074.029785,-1930.916748,-2110.040527,-2413.114502,-3128.676514,-3333.913574,-3206.465088,-4088.033447,-4863.183105,-5034.075195,-4698.733887,-4813.940918,-4554.706055,-4938.369629,-5484.437012,-5408.980957,-5352.122559,-5409.234863,-5428.479492,-5487.308594,-5501.089355
-4685.615234,-4686.724609,-4692.413574,-4685.419434,-4683.115234,-4682.641602,-4675.164062,-4670.484863,-4666.205566,-4657.135254,-4640.928711,-4612.478027,-4605.764160,-4630.082031,-4626.444336,-4627.194336,-4623.516602,-4610.993652,-4604.252930,-4599.376953,-4590.944336,-4582.728516,-4571.728027,-4564.481934,-4561.813965,-4597.090332,-4562.947266,-4557.273438,-4549.232422,-4539.696289,-4539.536621,-4531.064941,-4522.800293,-4505.930176,-4495.407715,-4471.280273,-4449.406738,-4437.247559,-4435.801758,-4375.025391,-4350.617676,-4243.654297,-4276.476074,-4259.041016,-4260.786621,-4208.211426,-4268.467773,-4331.614746,-4394.847168,-4428.758789,-4443.349609,-4456.258789,-4468.963867,-4477.937988,-4502.102051,-4503.767090,-4534.833984,-4557.700684,-4584.689453,-4613.006836,-4649.649902,-4680.381836,-4718.751953,-4737.037598,-4730.310547,-4682.049316,-4683.433594,-4657.245117,-4666.229980,-4349.666992,-4316.143066,-4324.395020,-3710.564697,-3003.941406,-2591.523438,-2298.198242,-2364.204834,-2306.962646,-2253.291748,-2012.303467,-1576.414551,-847.643372,-1092.539429,-1207.938599,-1379.124512,-2145.370361,-2801.311279,-1804.762573,-2247.382568,-3134.931396,-3191.783691,-2963.919678,-2780.578369,-2551.103271,-2200.114258,-2612.215820,-2292.096436,-2079.856201,-992.265076,-862.472656,-728.076416,-593.421326,-573.559998,-626.547668,-679.873962,-671.358521,-658.096558,-746.811890,-801.645874,-1001.418579,-1440.770386,-1497.107056,-2034.579346,-2475.876953,-3466.851074,-3560.407715,-4034.855713,-4874.573242,-5235.332520,-5255.864746,-5259.893066,-5323.696777,-5416.418457,-5366.237793,-5294.426758,-5338.650879,-5451.305664,-5499.858398,-5479.683594
-4678.776367,-4676.752441,-4674.450684,-4675.931641,-4673.099609,-4663.529297,-4661.281250,-4663.181152,-4657.636230,-4656.708984,-4623.335449,-4635.042480,-4634.585449,-4635.395508,-4629.585938,-4620.417969,-4611.909668,-4582.573730,-4590.726074,-4586.554688,-4579.281250,-4574.764648,-4560.768066,-4560.186523,-4570.454590,-4577.502930,-4556.823242,-4548.254883,-4526.371582,-4533.032715,-4532.321289,-4522.625000,-4515.212402,-4491.069824,-4487.432129,-4480.146973,-4369.155762,-4432.265625,-4423.572754,-4407.087402,-4343.347656,-4308.785156,-4289.413086,-4274.580566,-4307.107422,-4323.568359,-4322.571289,-4392.879883,-4408.645508,-4427.142578,-4450.038086,-4453.458984,-4455.681152,-4466.386719,-4470.158691,-4486.752441,-4509.611816,-4523.070801,-4548.201172,-4574.689453,-4606.090332,-4634.867676,-4693.730469,-4692.359375,-4691.624512,-4653.758301,-4645.659668,-4618.968262,-4480.505371,-4298.190918,-4201.678711,-3999.216797,-3751.501221,-3531.055908,-3712.936768,-3274.321533,-3105.756348,-2770.767578,-2919.810303,-2670.347412,-2325.502930,-1970.242432,-2283.006348,-2514.979980,-2767.973389,-3034.404541,-3258.586182,-2987.434570,-3112.935547,-3206.022705,-3204.314453,-3208.372070,-3188.185547,-3049.359619,-2866.100830,-2588.189209,-2206.574219,-1015.648987,-958.162903,-869.107300,-632.818787,-326.729736,-237.893478,-273.954956,-326.852478,-315.912842,-375.058899,-558.521729,-677.257263,-816.717896,-991.624573,-1358.556641,-1704.841919,-1832.399536,-2907.066162,-3324.540771,-3726.805176,-4372.217285,-4543.885254,-5127.676758,-5241.163086,-5370.984863,-5404.959473,-5384.336426,-5297.750977,-5330.156250,-5402.188477,-5492.958984,-5526.249512
-4682.411621,-4688.559570,-4684.295898,-4679.245117,-4662.792969,-4656.340820,-4655.773438,-4654.769531,-4644.168457,-4645.440918,-4643.413086,-4642.003906,-4633.816895,-4627.507324,-4620.059082,-4596.822754,-4597.917480,-4594.349121,-4596.019531,-4605.135742,-4587.449707,-4578.333984,-4602.726074,-4595.311035,-4588.638184,-4555.927734,-4547.530273,-4541.511719,-4538.103027,-4524.556152,-4515.724121,-4517.159668,-4495.797852,-4469.119141,-4484.698242,-4466.785156,-4446.827148,-4434.477051,-4421.024902,-4420.974609,-4342.358398,-4321.943848,-4325.931641,-4252.372070,-4346.802734,-4305.298340,-4330.139648,-4347.150391,-4399.928223,-4421.558594,-4422.804688,-4449.963867,-4447.304199,-4447.744629,-4377.854980,-4480.521973,-4485.753418,-4488.020996,-4508.644043,-4543.463867,-4566.230469,-4596.410156,-4640.301270,-4659.132324,-4701.891602,-4717.728027,-4690.938965,-4640.185547,-4323.118652,-4165.463379,-4020.623535,-3835.010986,-3816.231689,-3829.260254,-3975.966309,-4080.639404,-3957.432373,-3204.797607,-3151.700195,-3149.847168,-2854.112549,-2880.273926,-3082.227783,-3376.165771,-3419.559326,-3464.036865,-3588.189209,-3492.943848,-3169.227295,-3175.346191,-3215.976318,-3098.173096,-3042.632324,-2683.353271,-2623.351074,-2140.317139,-1172.373169,-1027.158936,-957.247864,-800.812439,-477.345428,-158.356918,37.361099,46.593250,-80.682663,-186.381149,-366.237274,-624.542725,-804.181030,-871.011169,-1210.602539,-1693.914062,-2084.911377,-2301.837158,-2567.080566,-2927.832275,-3165.538574,-3811.965576,-4004.530518,-4730.097656,-5146.523438,-5365.819336,-5375.189941,-5351.502441,-5372.354980,-5390.576660,-5492.937988,-5491.854492,-5496.017578
-4689.362305,-4687.701660,-4667.888184,-4672.357422,-4658.900391,-4661.913086,-4653.966309,-4650.018555,-4654.017090,-4646.227051,-4638.677246,-4638.349609,-4603.495605,-4629.111816,-4619.896973,-4596.717285,-4590.874023,-4586.327148,-4581.881348,-4589.639648,-4588.433105,-4614.622559,-4588.251465,-4590.333008,-4554.582520,-4549.954590,-4531.499023,-4532.938477,-4514.848145,-4510.802734,-4508.202148,-4496.280273,-4487.766113,-4475.950684,-4464.823242,-4461.161133,-4442.987793,-4441.110840,-4434.393066,-4422.079102,-4437.397949,-4222.458008,-4141.908691,-4138.981934,-4386.603027,-4394.300781,-4324.317383,-4332.858887,-4362.855957,-4396.164062,-4431.626465,-4414.975098,-4432.626953,-4442.660645,-4440.163574,-4452.555176,-4457.083008,-4487.044434,-4483.947266,-4505.982422,-4545.184082,-4568.624023,-4603.215332,-4607.905273,-4617.481445,-4574.722656,-4519.666504,-4510.188477,-4300.588379,-4023.497803,-4043.106201,-3991.731445,-3881.849609,-3842.815918,-4104.375000,-4154.193848,-3957.315918,-3841.765625,-3325.437012,-3304.323242,-3583.772217,-3719.472656,-3604.125488,-3779.314453,-3865.383789,-3808.951172,-3880.053711,-3227.172363,-3014.899414,-2736.680908,-2448.340576,-2295.432861,-2101.895020,-1940.669678,-1510.733887,-1216.310303,-1053.101196,-1067.126953,-984.011169,-763.659058,-396.556702,-140.210083,206.370819,427.824524,245.441544,-17.068844,-299.062408,-495.573578,-697.056152,-830.096008,-890.631348,-1008.237671,-1787.921875,-2350.822266,-2676.576904,-2856.495117,-2881.594727,-3209.108643,-4053.003174,-3958.837646,-4758.345215,-5312.651367,-5304.828125,-5332.450684,-5423.482910,-5533.027832,-5509.518066,-5522.618652,-5549.669922
-4675.338867,-4656.169922,-4679.896973,-4668.875488,-4663.275879,-4662.981445,-4662.296875,-4651.503906,-4642.485840,-4639.214355,-4651.686523,-4626.619141,-4624.038086,-4626.879883,-4615.123047,-4611.270508,-4623.397461,-4587.188965,-4676.490234,-4594.580566,-4582.281738,-4594.295410,-4572.172363,-4555.731934,-4548.725098,-4541.165039,-4530.547363,-4523.768555,-4514.202637,-4503.490723,-4493.421387,-4484.956055,-4475.361816,-4463.523438,-4456.103027,-4458.448242,-4438.758789,-4431.906250,-4431.967285,-4428.657715,-4429.834473,-4430.313477,-4078.899414,-4119.644531,-4328.388184,-4401.065430,-4397.527344,-4285.005371,-4346.922852,-4381.037109,-4400.715332,-4411.104004,-4400.609375,-4415.708496,-4445.759766,-4434.687988,-4448.912109,-4461.795410,-4477.008301,-4476.880371,-4516.252930,-4524.865234,-4549.524414,-4544.839844,-4534.044434,-4478.509766,-4370.496582,-4415.054199,-4400.854980,-4314.813965,-4277.608887,-4248.062012,-3789.620117,-3886.242432,-4232.433594,-4270.996582,-3965.895508,-4206.548340,-3794.038818,-3685.545410,-3599.818359,-3825.191650,-3874.711182,-3890.777344,-3901.996826,-3888.051514,-3504.990723,-2996.588623,-2647.138428,-2378.357422,-2009.350952,-1244.177368,-1551.364746,-1437.301880,-1249.774658,-1211.940186,-1102.235962,-1101.046875,-1032.656494,-831.466858,-519.491882,-151.874985,199.777451,683.357056,789.020569,695.337585,544.513062,-131.193939,-283.704865,-323.650757,-339.653992,-344.552521,-782.661560,-1175.153442,-2300.772949,-2746.807373,-2982.539307,-3098.228027,-3498.524902,-3719.895508,-4309.445801,-5161.741211,-5189.838867,-5373.756836,-5497.124023,-5569.418945,-5570.158203,-5569.331055,-5582.540527
-4626.215820,-4685.753906,-4679.972656,-4681.814941,-4673.886230,-4661.120605,-4651.339844,-4632.417969,-4625.622070,-4625.975098,-4623.937988,-4616.241211,-4615.873047,-4606.789062,-4605.802246,-4606.552246,-4599.768555,-4598.311523,-4606.560547,-4619.829102,-4597.701660,-4567.770996,-4565.830566,-4556.849609,-4549.203125,-4538.967773,-4528.875488,-4515.380859,-4506.775391,-4498.149414,-4490.635742,-4478.086426,-4467.134277,-4453.127441,-4447.186523,-4441.874023,-4437.436035,-4430.036621,-4427.195312,-4427.372559,-4413.648926,-4434.202148,-4432.229980,-4421.714844,-4405.152832,-4398.352539,-4400.399902,-4389.625488,-4383.336426,-4390.635254,-4375.388184,-4379.156250,-4394.507324,-4402.708496,-4038.595215,-3531.761475,-4425.407715,-4438.710449,-4446.066895,-4115.966309,-4046.629883,-4483.613770,-4510.143066,-4491.526367,-4499.637207,-4438.286133,-4426.949219,-4125.749512,-4059.503418,-4235.881348,-4164.226562,-3836.401123,-3561.227295,-3864.063232,-4292.803223,-4342.472168,-4200.237305,-4318.708008,-3817.359375,-3555.910400,-3836.132080,-3656.977051,-3814.895264,-4034.948242,-4501.822754,-4178.243652,-3677.380127,-3140.344727,-2807.731445,-2489.797363,-2198.839844,-2072.119141,-1867.283691,-1450.681885,-1302.135864,-1217.018188,-1147.909790,-1127.689331,-1055.952759,-853.584717,-647.128296,-325.385345,98.336266,545.562805,1113.967529,1302.634033,1148.655396,682.504517,382.145599,179.815628,-23.681681,-196.303818,-302.855164,-349.704742,-386.870361,-1677.320435,-2503.052979,-2810.498047,-3065.690186,-3186.093994,-4126.171387,-4815.754883,-5066.247070,-5413.381348,-5545.916992,-5566.880859,-5583.362793,-5580.443359,-5591.539551
-4666.048828,-4672.979492,-4680.941895,-4674.848145,-4658.025879,-4608.310059,-4624.348145,-4642.269531,-4634.255371,-4632.189941,-4655.432617,-4624.553711,-4605.108887,-4612.229980,-4605.533691,-4597.763672,-4598.361816,-4599.100586,-4600.697266,-4594.677246,-4583.590332,-4572.469238,-4560.987793,-4553.391602,-4541.919434,-4531.156250,-4521.188965,-4518.125000,-4510.375488,-4478.312012,-4495.434570,-4466.584961,-4455.150879,-4449.452148,-4448.177734,-4447.953613,-4435.580566,-4427.595215,-4418.109375,-4417.966797,-4421.260254,-4418.519531,-4414.536621,-4415.841309,-4401.619141,-4391.664551,-4395.487793,-4373.728027,-4369.721191,-4366.929199,-4359.301270,-4362.826172,-4384.383789,-4390.879395,-4025.093994,-3378.704834,-4097.943848,-4323.125977,-3491.430420,-2730.732178,-3287.863770,-4117.896973,-4436.826172,-4406.376953,-4419.108887,-4438.617676,-4407.924316,-3677.007324,-4233.622070,-4179.557617,-3972.252441,-3683.629883,-3927.943115,-3925.427246,-4306.681152,-4431.366211,-4249.385742,-4629.310547,-4691.444336,-4589.844727,-4538.995605,-4622.790527,-4515.591309,-4582.343750,-4677.268555,-4782.553223,-4607.270508,-4044.265381,-3507.409668,-3198.404297,-2780.345947,-2544.204346,-2138.180908,-1731.098999,-1275.520996,-1279.570923,-1181.959351,-1187.853149,-915.961548,-662.565857,-427.102875,-423.115875,-147.643143,222.456863,743.060364,1223.720581,1154.526123,935.290344,796.223877,733.621338,584.336487,333.247101,27.090698,-198.022186,-275.233978,-356.145905,-1452.357178,-2152.019531,-2468.215332,-2695.583252,-3337.188477,-4029.975586,-4584.716797,-5029.289062,-5307.348145,-5566.758301,-5579.926270,-5574.773438,-5588.730957
-4650.135254,-4658.440918,-4648.800781,-4639.902344,-4646.060547,-4615.504883,-4640.741211,-4644.187988,-4660.070312,-4725.993164,-4737.473633,-4623.077148,-4628.550293,-4623.241211,-4611.332520,-4602.524902,-4599.397461,-4594.702148,-4594.440430,-4579.770996,-4570.458008,-4565.371582,-4561.480469,-4539.806641,-4537.369629,-4519.299316,-4517.160156,-4496.424805,-4505.036133,-4485.981445,-4465.773926,-4468.726562,-4456.656738,-4442.911621,-4436.098145,-4434.369141,-4432.638184,-4437.174805,-4416.055664,-4419.354004,-4423.645508,-4416.812012,-4407.230469,-4420.323730,-4396.263184,-4392.111328,-4372.713379,-4345.894531,-4366.825195,-4355.065430,-4345.466309,-4365.159668,-4376.016113,-4391.835449,-4395.489258,-4387.852539,-4385.583984,-4376.802734,-3971.083496,-3336.402832,-3102.819336,-4127.912598,-4201.778320,-4275.635742,-4255.741211,-4366.291504,-4374.369141,-3383.161621,-4228.849609,-4274.730957,-4264.781738,-3893.195801,-4334.084961,-4113.552734,-4330.054199,-4480.141113,-4404.284180,-4702.184570,-4740.439941,-4734.366211,-4752.465332,-4759.165039,-4770.434570,-4769.889648,-4781.321777,-4783.051758,-4788.581543,-4772.741211,-4155.193848,-3719.299561,-3529.527100,-3055.596191,-2796.131592,-2306.058838,-1583.979004,-1282.619507,-1275.333862,-1172.223633,-825.707581,-592.195251,-422.969604,-412.478119,-235.510666,26.233995,364.630432,621.228516,803.689331,897.173706,975.709656,1050.829712,1006.478088,871.296326,642.690125,421.132507,139.164169,-198.679520,-326.520599,-376.411713,-1096.426270,-1884.222168,-2647.485840,-3283.234863,-3774.558105,-3953.178955,-4510.444824,-4839.647461,-5370.834473,-5473.520020,-5578.312988
-4494.698730,-4460.093750,-4428.479492,-4509.841309,-4610.929199,-4643.394043,-4620.344727,-4632.257812,-4638.081543,-4718.586914,-4707.831543,-4622.532715,-4635.255859,-4632.830566,-4625.091309,-4594.354980,-4595.417969,-4599.588379,-4593.119629,-4587.834961,-4569.480957,-4557.149414,-4276.413086,-4309.215820,-4315.873047,-4229.890625,-4319.279785,-4402.460449,-4492.248535,-4508.401855,-4477.165039,-4460.905273,-4386.510254,-4451.673828,-4440.235840,-4429.720703,-4031.895752,-4380.426758,-4420.461426,-4418.566895,-4422.084961,-4414.518555,-4396.015137,-4404.757324,-4393.354492,-4391.603027,-4356.979980,-4359.445312,-4364.548828,-4344.959473,-4340.421387,-4342.010742,-4364.942871,-4372.487793,-4382.709473,-4384.502441,-4383.632812,-4382.666504,-4383.339355,-4356.079590,-4178.637695,-4192.896973,-4201.402832,-4135.942383,-4249.320801,-3723.128174,-4134.659180,-2997.900146,-4229.189453,-4297.442871,-4314.466309,-4249.453125,-4366.679688,-4053.198242,-4343.087891,-4495.390137,-4477.326172,-4579.119141,-4741.522461,-4738.166504,-4746.809570,-4762.060547,-4768.730469,-4777.848145,-4785.729004,-4788.602051,-4794.003906,-4796.570312,-4804.038086,-4565.703125,-3978.012939,-3532.039307,-3056.061768,-2441.713867,-2014.491455,-1710.256348,-1302.537842,-914.147095,-590.310059,-444.429993,-409.368683,-129.479019,-82.755219,64.711250,313.637543,597.973389,781.790161,981.889099,1180.300659,1314.922485,1431.192871,1425.151978,1313.516235,1089.333130,724.144348,320.284576,-93.408203,-304.456757,-340.151398,-387.313232,-926.547363,-2359.645996,-2760.578857,-2695.325439,-3236.597412,-4176.436523,-4543.560547,-4462.612305,-4930.146973
-4635.467773,-4570.335449,-4514.900879,-4554.146973,-4587.855957,-4555.713867,-4566.386230,-4639.241211,-4576.564941,-4588.573730,-4602.334961,-4618.174316,-4609.437500,-4620.637207,-4598.373047,-4587.177246,-4438.435059,-4579.381348,-4592.573242,-4598.785156,-4523.679199,-4446.810059,-4427.288574,-4471.185547,-4590.545898,-4590.711426,-4574.861816,-4556.603516,-4560.883789,-4547.091309,-4453.996582,-4481.326660,-4430.475098,-4457.904297,-4450.623047,-4443.570312,-4445.212402,-4432.675293,-4424.459473,-4420.921387,-4413.990234,-4404.043945,-4407.390137,-4390.330078,-4363.772949,-4347.284180,-4344.932617,-4364.755859,-4329.662598,-4336.848145,-4350.780762,-4351.606445,-4356.639648,-4362.948730,-4370.659668,-4378.495605,-4367.940430,-4378.276855,-4373.175293,-4377.627441,-4353.439941,-4245.009277,-4198.450195,-4183.927734,-4183.192383,-4145.190918,-4075.847412,-3075.413574,-3900.762451,-4281.378906,-4309.814453,-4317.050781,-4361.277344,-4240.979004,-4379.644043,-4540.547363,-4682.544434,-4737.255371,-4734.874512,-4750.025879,-4755.917969,-4763.109863,-4769.994141,-4776.469238,-4784.502441,-4792.452148,-4800.837891,-4798.801270,-4804.728027,-4809.059082,-4270.245605,-3967.471680,-3558.955566,-3081.153564,-2168.233887,-1558.179321,-1390.348755,-754.551880,-411.917755,-372.074127,-127.465157,-84.729286,24.384363,224.743057,393.552094,651.972595,973.937439,1217.919189,1436.943115,1753.514404,2137.064209,2191.806641,2007.046143,1586.678955,1195.301758,750.539062,332.295166,-55.278805,-264.219330,-348.894745,-366.338043,-1034.183350,-1552.530273,-1844.035034,-2236.499512,-2489.693115,-2996.148193,-3700.579346,-4110.313477
-4570.205078,-4577.419922,-4512.864746,-4543.902832,-4548.155273,-4563.120117,-4549.613770,-4584.496582,-4588.135254,-4565.102051,-4582.645508,-4581.316895,-4564.048340,-4584.566406,-4266.276367,-4445.511719,-4335.917480,-4249.714355,-4438.740723,-4567.011230,-4642.506836,-4632.625488,-4624.603516,-4614.472168,-4600.250000,-4545.817871,-4478.989746,-4555.688477,-4548.172363,-4550.163574,-4526.360352,-4481.988770,-4476.422852,-4269.042969,-4462.570312,-4448.003418,-4426.120605,-4441.821777,-4432.191895,-4411.928711,-4411.791016,-4405.740234,-4405.914062,-4368.264160,-4342.560547,-4270.039062,-4263.735840,-4306.146973,-4295.716797,-4330.659180,-4373.665527,-4345.555176,-4353.272461,-4358.412598,-4351.595703,-4365.431152,-4355.197754,-4367.975586,-4366.666504,-4356.173828,-4332.162109,-4236.672363,-4265.914551,-4271.551270,-4278.071289,-3910.439941,-4013.375000,-3989.962402,-3889.280518,-4216.343750,-4288.744141,-4307.351562,-4458.850098,-4486.627930,-4197.388184,-4523.003418,-4699.357910,-4742.379395,-4738.029785,-4752.541992,-4753.200195,-4758.903320,-4765.516113,-4778.029785,-4779.799805,-4789.717285,-4799.723145,-4808.970703,-4813.858887,-4802.942383,-4806.250000,-4684.557129,-4170.019043,-3768.203857,-3441.050049,-2869.012207,-1397.883301,-502.833893,-211.810120,-119.140633,-76.415260,-0.288499,144.222794,492.572723,620.041870,844.399658,1247.742798,1681.988159,2222.329590,2918.549561,3634.458008,3411.411865,2563.757324,1803.079834,1381.707520,969.937805,533.174927,189.094070,-87.624519,-313.855072,-353.167084,-862.303040,-1480.199585,-1940.791992,-2243.613525,-2346.173584,-2578.464600,-2938.534424,-3334.367432
-4452.452637,-4511.717773,-4534.469727,-4559.978516,-4532.540527,-4580.739258,-4523.609375,-4528.551758,-4594.249023,-4587.588867,-4514.512695,-4517.554199,-4482.563965,-4480.805176,-4627.676270,-4759.706543,-4748.777832,-4747.448242,-4726.373047,-4656.031738,-4634.463379,-4617.327637,-4608.849121,-4561.088867,-4564.937012,-4578.472168,-4522.459473,-4428.613281,-4526.275879,-4432.008301,-4522.994141,-4496.301270,-4466.765625,-3875.363525,-4467.071777,-4453.254883,-4449.890625,-4452.760254,-4426.289062,-4416.334961,-4393.046875,-4400.904297,-4400.666504,-4404.767090,-4341.803711,-4259.682617,-4206.674805,-4219.849609,-4220.087891,-4321.878906,-4331.586426,-4333.936035,-4340.365723,-4345.676758,-4348.808105,-4262.144043,-4341.087891,-4335.026855,-4351.981445,-4340.778809,-4331.334473,-4310.404297,-4285.644531,-4112.037598,-4234.312012,-4212.462891,-3945.366943,-3699.150635,-3650.774170,-4031.214355,-4146.577148,-4289.847656,-4457.399414,-4532.495117,-4564.652832,-4585.291504,-4645.877441,-4731.810059,-4740.644531,-4781.330566,-4745.377441,-4760.311035,-4766.083984,-4775.520508,-4783.625488,-4799.907227,-4798.350098,-4810.165527,-4815.255859,-4819.164551,-4803.884766,-4816.197754,-4773.626465,-4471.007812,-3542.757568,-3185.460205,-2176.502197,-397.267700,-113.006195,-35.111725,107.156013,297.965759,461.390625,777.612305,913.649048,1049.235596,1337.987793,1816.964478,2449.094482,3250.128906,3896.175781,3406.358887,2581.719238,1882.249634,1419.338989,1034.576660,689.560059,273.617920,-107.353882,-285.135193,-346.385071,-1302.241333,-2121.729980,-2241.221924,-2677.758545,-2987.467285,-3305.048340,-3660.308350,-3925.595703
-4449.297852,-4421.796875,-4458.162598,-4360.386230,-4503.835938,-4519.562988,-4659.426270,-4540.012207,-4558.377441,-4590.029785,-4689.915527,-4790.635254,-4885.933105,-4820.866699,-4760.451660,-4752.401855,-4766.303223,-4737.381348,-4714.003906,-4622.296387,-4593.095215,-4575.436035,-4542.226074,-4529.786621,-4541.649414,-4551.772461,-4560.149902,-4547.950684,-4539.016113,-4530.923828,-4403.593750,-4142.144531,-4481.869141,-4481.406250,-4470.639648,-4465.036133,-4461.556641,-4291.554199,-4414.668457,-4405.956543,-4398.660156,-4400.753418,-4397.548340,-4396.683105,-4346.390137,-4268.005859,-4230.964844,-4224.008301,-4148.167969,-4188.036133,-4244.747070,-4318.682129,-4319.530762,-4328.218262,-4332.550293,-4310.432129,-4227.907227,-4274.599121,-4319.104492,-4323.045410,-4326.140137,-4303.944336,-4289.517090,-4273.584473,-4240.812988,-4169.249023,-4090.615723,-3916.113770,-3498.423828,-4220.536621,-4272.333496,-4349.649414,-4408.575195,-4515.806152,-4546.466797,-4531.895020,-4594.940430,-4715.625977,-4738.375977,-4741.218262,-4751.483887,-4758.541016,-4762.730469,-4774.544434,-4781.677246,-4797.088867,-4790.823730,-4807.857422,-4812.174316,-4798.218750,-4773.130371,-4769.559570,-4778.601074,-4789.481934,-4223.327148,-3196.468262,-2580.107178,-1555.272461,-104.681374,55.127575,503.431549,874.574707,942.857727,1112.378174,1184.811279,1274.414307,1473.178833,1705.627563,1815.125366,2071.240234,2793.210693,2679.829346,2111.286133,1661.529419,1267.460693,972.516724,620.355591,276.444183,-42.627159,-71.534592,-324.345215,-1946.445435,-2296.186035,-2682.603271,-2970.915039,-3487.848633,-3732.704346,-3811.053223,-3716.930176
-4507.038086,-4554.916992,-4515.466797,-4542.860840,-4542.478027,-4568.750488,-4428.881836,-4957.169922,-4971.176270,-4966.274414,-4970.639648,-4905.221191,-4856.073242,-4788.623047,-4759.673828,-4717.898926,-4755.494141,-4673.702637,-4647.235352,-4710.428223,-4655.579590,-4637.060059,-4545.255859,-4545.960449,-4545.146973,-4518.068359,-4533.427246,-4539.403809,-4533.960938,-4520.254883,-4513.634766,-4494.739258,-4492.609375,-4483.185547,-4473.307617,-4383.057129,-4455.316406,-3659.517822,-3789.745117,-4233.469727,-4404.530273,-4394.011719,-4391.468750,-4397.069336,-4383.442871,-4291.068848,-4256.498047,-4219.969238,-4192.145020,-4191.472168,-4214.781250,-4285.571777,-4295.277344,-4322.541504,-4322.606445,-4316.936523,-4285.705566,-4218.346191,-4258.814941,-4288.978027,-4288.473633,-4274.632812,-4278.766602,-4274.053711,-4265.396973,-4273.734375,-4163.354004,-4224.977051,-4370.937988,-4278.042480,-4240.763184,-4371.389160,-4426.107422,-4489.367188,-4483.338867,-4494.493164,-4572.531250,-4670.420898,-4701.794434,-4745.680176,-4742.831055,-4759.143555,-4766.650879,-4767.395508,-4769.789062,-4626.486816,-4349.877441,-4804.145020,-4798.950684,-4760.910645,-4710.333008,-4625.006348,-4712.464844,-4740.420898,-4440.155762,-3741.548096,-2684.804688,-2085.098633,-826.534912,71.025444,547.136658,1396.137939,2172.258789,1677.864258,1424.610107,1437.589111,1622.564819,1772.725098,1856.032104,1972.519165,2063.692627,2001.926270,1673.490112,1383.787476,1121.477051,824.834534,507.813080,226.021378,10.965296,12.859745,-157.147736,-1879.742920,-2507.955811,-2763.405762,-2841.095703,-3177.248291,-3557.247314,-3631.595703,-3227.320312
-4667.254883,-4601.153320,-4720.387695,-4891.252441,-5019.787598,-4846.789551,-4819.628906,-4949.390625,-4935.422363,-4921.260742,-4866.128906,-4793.712891,-4819.442871,-4753.841309,-4744.600586,-4749.863770,-4654.714844,-4685.471680,-4661.841797,-4669.851562,-4657.448242,-4638.185059,-4633.358887,-4591.663574,-4572.211914,-4536.627441,-4551.341797,-4541.120605,-4528.199219,-4511.712402,-4503.482422,-4493.356934,-4492.947266,-4472.460938,-4472.777344,-4454.510742,-4465.950684,-4486.341797,-4488.021973,-4460.053711,-4483.126465,-4029.898438,-3831.482178,-4388.137207,-4352.904297,-4325.538086,-4269.418945,-4218.400391,-4251.712402,-4183.444336,-4191.647461,-4252.130859,-4264.388184,-4299.407227,-4309.382812,-4312.342285,-4319.821777,-4275.077637,-4204.779297,-4233.872559,-4275.640137,-4245.849609,-4273.053711,-4279.718262,-4269.735840,-4271.586426,-4284.129395,-4311.860840,-4335.580078,-4390.433594,-4367.126465,-4428.687012,-4420.074707,-4430.921387,-4374.025391,-4475.300293,-4579.520508,-4644.696777,-4716.354004,-4742.752930,-4751.850586,-4762.919922,-4765.643066,-4181.535645,-3956.356445,-4513.547363,-4182.055176,-4801.854492,-4788.091797,-4747.155273,-4667.857910,-4657.772461,-4663.498535,-4674.700684,-4314.260742,-4083.583984,-3106.174072,-2347.021240,-1620.741455,15.852395,267.906769,941.546143,1617.984985,1889.563843,1580.521606,1619.197998,1837.527954,1957.282593,2026.819580,2062.601562,2060.802979,1937.496216,1724.808472,1477.490601,1178.689209,866.345947,578.607910,279.369598,110.647408,43.795902,-16.069437,-1476.979980,-2571.560547,-2637.816895,-2500.535156,-2812.934814,-2753.267334,-2629.227051,-2015.522339
-5039.211426,-5062.407715,-5048.667969,-5012.841309,-4788.773926,-4260.993164,-4406.540039,-4976.259766,-4924.116211,-4888.672363,-4875.982910,-4811.896484,-4836.210449,-4779.253418,-4813.951172,-4788.507812,-4718.310059,-4692.416016,-4713.280273,-4667.374023,-4646.777344,-4673.505859,-4658.940918,-4621.928223,-4577.735840,-4590.977539,-4552.420898,-4540.625000,-4528.187500,-4513.322754,-4502.673828,-4491.102539,-4481.304199,-4469.175781,-4471.243652,-4447.782227,-4452.054688,-4447.189941,-4458.170898,-4472.395020,-4477.569336,-4372.292480,-3258.250977,-4385.406250,-4364.528320,-4282.413574,-4315.155762,-4248.558594,-4266.667969,-4243.000000,-4135.957031,-4226.586914,-4232.385742,-4262.244141,-4290.464844,-4308.353027,-4316.408691,-4323.141113,-4244.017090,-4202.493652,-4247.215820,-4242.725586,-4276.825195,-4279.817383,-4267.962891,-4276.933105,-4280.395508,-4309.444824,-4284.972656,-4330.984375,-4368.517090,-4405.046875,-4409.398438,-4429.127930,-4414.562988,-4475.416992,-4497.648926,-4628.428223,-4719.914062,-4739.567871,-4746.000488,-4754.102051,-4766.024414,-4761.306152,-3749.419434,-3754.655518,-3783.783203,-4798.684570,-4796.566406,-4761.171387,-4759.532715,-4670.374512,-4607.503418,-4590.713379,-4007.932861,-4068.578125,-3314.685059,-2412.639648,-1682.151978,-286.518280,18.459257,733.425293,1236.936523,1488.546875,1593.546631,1801.903931,2087.156250,2340.704834,2421.768555,2456.597412,2348.873535,2128.959229,1877.480591,1603.750610,1291.098877,937.922485,645.887390,439.455933,226.832565,84.132812,30.719238,-484.384155,-1887.498657,-2253.907227,-1704.663696,-2001.184570,-1386.802246,-1530.835327,-2245.302002
-5014.809082,-5010.100098,-5043.695801,-5049.912109,-4628.178223,-4599.033203,-4965.443848,-4970.624023,-4937.071289,-4870.515137,-4848.250977,-4779.873535,-4766.235352,-4761.010742,-4847.840820,-4787.586426,-4809.530273,-4747.219238,-4743.882812,-4725.717285,-4721.023926,-4688.163086,-4716.617188,-4696.495117,-4674.175781,-4697.938965,-4590.679199,-4577.842285,-4532.664062,-4507.149414,-4489.243164,-4482.415527,-4467.737793,-4454.598633,-4474.169434,-4452.824219,-4451.319824,-4454.255859,-4457.875977,-4466.741211,-4459.521484,-4402.420898,-3643.882568,-4375.196777,-4341.602051,-4362.064453,-4338.349121,-4248.765625,-4287.508789,-4320.174316,-4164.396973,-4224.059570,-4228.815430,-4218.411621,-4242.686523,-4278.841309,-4295.862305,-4317.030762,-4334.122070,-4263.047852,-4255.237305,-4254.118164,-4274.022461,-4260.797852,-4266.512695,-4263.384277,-4269.614258,-4276.712402,-4292.960449,-4326.401855,-4376.450684,-4355.900391,-4425.709473,-4329.341309,-3401.395020,-4417.802734,-4492.104492,-4075.336670,-3798.941650,-4417.733887,-4748.689941,-4753.456055,-4756.936035,-4766.153809,-4361.959961,-4222.643066,-3496.380859,-4782.770508,-4789.720703,-4794.630371,-4759.458496,-4641.154785,-4655.751465,-4509.688477,-4441.771973,-4106.910645,-2921.314697,-2717.485596,-1988.721436,-1112.502197,-33.689770,577.342285,1082.936768,1384.614258,1670.265503,2047.999512,2450.517578,2870.806641,3039.961426,2998.648438,2851.497559,2535.536865,2121.910156,1734.260498,1377.060059,1065.121582,783.410889,495.610046,332.969147,190.112350,102.828995,50.679775,-85.908791,-903.194092,-618.001526,-714.292297,-1557.957275,-2148.384521,-2701.230713
