133.5897674560547,132.8978118896484,132.8227081298828,132.5985412597656,131.9285278320312,130.5969390869141,131.0855865478516,131.2476654052734,131.4756622314453,132.2043151855469,132.0535736083984,132.1902770996094,132.1859283447266,134.1051483154297,135.5047912597656,135.6152954101562,134.4379272460938,132.6581115722656,132.0316162109375,130.2603454589844,128.9043731689453,129.6402587890625,129.9416656494141,129.9677276611328,129.76904296875,128.6699829101562,130.3779449462891,132.388916015625,134.2208404541016,133.9190521240234,134.2931976318359,134.4280548095703,133.6558074951172,132.8688812255859,130.7309875488281,129.6448669433594,128.7291259765625,128.9404144287109,128.6464691162109,128.2498168945312,128.0232238769531,128.1345977783203,127.9562072753906,126.6782608032227,125.5400314331055,127.0030212402344,128.7411193847656,128.8656463623047,128.8975524902344,129.1605682373047,129.7682800292969,130.2044525146484,130.6785888671875,132.1928863525391,133.4270782470703,134.7395629882812,136.3163452148438,138.5763854980469,139.2904815673828,139.1627502441406,141.7962036132812,143.6595306396484,144.7037963867188,145.0718383789062,145.7108306884766,145.6232604980469,143.1177978515625,142.6540679931641,142.9375152587891,143.2137298583984,143.0391082763672,143.1336975097656,143.0511627197266,142.9421081542969,142.832275390625,142.8488464355469,142.8049774169922,142.8835296630859,142.6864013671875,142.5973968505859,142.5767974853516,142.6443634033203,142.5990753173828,142.6416168212891,142.5251312255859,142.5859680175781,142.7645263671875,142.5792694091797,142.5542144775391,142.6519622802734,142.6607666015625,142.4818267822266,142.6796569824219,142.5056915283203,142.3379058837891,143.4187164306641,144.5362091064453,144.6946563720703,144.7672729492188,145.0376434326172,144.6675872802734,143.54052734375,142.8860168457031,142.4647827148438,138.8528137207031,136.4445953369141,135.6740570068359,133.7618865966797,131.4449920654297,129.0881958007812,128.0577087402344,127.8443222045898,130.2734527587891,131.6656646728516,132.0980529785156,132.9245910644531,132.7114410400391,131.5491638183594,130.3962707519531,130.0307159423828,129.2099914550781,129.0545959472656,128.1502685546875,126.1829147338867,124.6916122436523,124.1852722167969,124.0850830078125,123.884521484375,123.8634872436523,124.1259307861328,124.2965087890625,124.5641784667969,124.8498077392578,124.7949066162109,124.4179153442383,124.4123382568359,124.5364456176758,124.4246978759766,124.3983154296875,124.331672668457,124.6025238037109,125.1966857910156,125.8956604003906,127.539665222168,129.7559661865234,130.9880828857422,130.3222351074219,128.9565124511719,126.5703582763672,124.5437164306641,124.2098388671875,124.153678894043,124.4548492431641,124.2693023681641,123.8986740112305,123.7971038818359,123.5837173461914,123.6575241088867,123.8635940551758,123.6905059814453,123.3243560791016,123.1796951293945,123.0084381103516,122.6887893676758,122.6521682739258,123.9874801635742,127.0908966064453
133.5374145507812,134.1016998291016,132.4781036376953,132.2942504882812,130.7222137451172,130.0875854492188,129.6594543457031,129.0763549804688,129.2763366699219,129.6627197265625,131.4072875976562,132.2153015136719,132.0394134521484,132.3980560302734,134.1559906005859,133.5254516601562,132.1573181152344,131.9931488037109,130.1949157714844,127.777946472168,126.8190841674805,127.1735305786133,128.5775451660156,129.5570831298828,129.4948120117188,129.5423278808594,130.9380798339844,132.7085266113281,134.4686126708984,133.9247741699219,134.3583984375,134.0749664306641,133.1605987548828,132.6352996826172,129.7802124023438,128.7004699707031,128.5244140625,128.6502227783203,128.3621368408203,128.07177734375,128.3247985839844,127.9306259155273,126.6092071533203,125.6536865234375,126.2251663208008,127.8430786132812,128.8313751220703,128.8396148681641,128.7958526611328,128.7710266113281,129.0664215087891,129.7706146240234,132.0629272460938,133.9368133544922,135.4247894287109,137.061279296875,137.8779907226562,138.7813873291016,138.9890289306641,139.2143859863281,140.3749847412109,142.0415802001953,141.7419128417969,142.1681365966797,141.4175262451172,141.6589508056641,141.4502563476562,142.1118621826172,141.7825775146484,143.1465148925781,142.7156372070312,142.5723571777344,143.0313720703125,142.8995056152344,142.6940612792969,142.73486328125,142.5572052001953,142.5476379394531,142.5484466552734,142.4850006103516,142.3457183837891,142.4432983398438,142.4259948730469,142.4405822753906,142.2959442138672,142.5377655029297,142.4571228027344,142.3935089111328,142.4522857666016,142.4768524169922,142.3991394042969,142.0892639160156,142.4036407470703,142.5734558105469,142.2342071533203,142.73779296875,143.9798278808594,144.9411010742188,145.0733947753906,145.3749847412109,145.4690704345703,144.5092315673828,143.5793151855469,143.0449829101562,140.7757720947266,137.1949462890625,135.4598388671875,134.7782440185547,133.6660919189453,131.0938720703125,128.5947265625,127.214958190918,127.4664306640625,130.2415161132812,130.8982086181641,132.1486358642578,132.5672607421875,132.1459350585938,130.8932800292969,130.4261627197266,129.9380493164062,129.6805114746094,128.6427764892578,126.939811706543,125.3423080444336,124.7904205322266,124.3581924438477,123.7950668334961,123.6301956176758,123.5101318359375,123.418098449707,123.3582916259766,123.6587753295898,123.7209396362305,124.152214050293,124.3096389770508,124.2968292236328,124.1870498657227,124.8771362304688,125.5641860961914,126.6056442260742,126.8348007202148,127.6487350463867,128.600341796875,131.4061126708984,131.4817199707031,130.7601470947266,130.1309051513672,128.3049926757812,126.290641784668,124.2653274536133,123.8366470336914,124.0191116333008,123.9578704833984,123.7741317749023,123.6515350341797,123.4704055786133,123.3825378417969,123.1637420654297,123.3149871826172,123.1955184936523,123.196647644043,122.8768157958984,122.3820190429688,122.3065032958984,122.9762344360352,125.9549255371094
132.3423614501953,134.9314880371094,133.2510833740234,132.3666687011719,130.6323547363281,129.6687774658203,128.845947265625,127.6605224609375,129.0844879150391,129.0872344970703,129.2608032226562,129.6685791015625,130.5355987548828,131.7203216552734,132.1577758789062,132.1844940185547,131.3565673828125,129.0104370117188,126.9904632568359,126.8058395385742,126.6950225830078,127.0445938110352,127.5568466186523,127.9622192382812,128.4847717285156,130.3321533203125,131.2562866210938,133.3315277099609,134.1531677246094,134.2315979003906,134.0686340332031,133.4797973632812,132.9853820800781,132.3111572265625,130.0324096679688,128.7202301025391,128.3955383300781,128.3684692382812,128.1702880859375,128.0038757324219,128.1754608154297,127.5232467651367,125.9318466186523,125.1056060791016,126.7585601806641,128.0880889892578,128.6310882568359,128.6065521240234,128.6488800048828,128.7234497070312,128.8414459228516,129.6506195068359,133.0949859619141,135.1487426757812,136.0483856201172,136.7938232421875,137.2427673339844,137.7613067626953,138.4918212890625,139.1274261474609,139.7268676757812,140.1576995849609,140.3768157958984,140.4805297851562,140.5117492675781,140.8366546630859,141.0712738037109,141.4669494628906,141.1213989257812,141.1573944091797,141.4962158203125,141.6375732421875,141.8460388183594,142.1339721679688,142.3792419433594,142.4002227783203,142.3547668457031,142.2428436279297,142.2654876708984,142.3019866943359,142.2335968017578,142.306396484375,142.1732177734375,141.9477386474609,142.1837921142578,142.3060150146484,141.3644104003906,141.7902374267578,141.5953979492188,141.7774200439453,142.2465209960938,142.2396392822266,142.2942504882812,142.4621734619141,142.4217529296875,142.4716796875,143.7330322265625,145.0764923095703,145.4150238037109,145.4411926269531,145.3993988037109,145.2207946777344,144.3500518798828,143.3455505371094,141.7416381835938,139.2208251953125,136.7850494384766,136.3769378662109,136.7008666992188,135.3962860107422,132.2215270996094,127.5021209716797,126.624153137207,126.9619369506836,128.4061584472656,129.8287811279297,131.2344665527344,132.5106506347656,132.2963714599609,131.7771453857422,130.9300689697266,129.5919036865234,128.1013336181641,126.4025344848633,125.2209777832031,125.0460662841797,124.7395401000977,124.5753860473633,124.0760116577148,123.3388595581055,123.3396377563477,123.5029449462891,123.6630325317383,123.9246444702148,124.331428527832,124.1324157714844,124.0728607177734,123.8321914672852,125.4934463500977,127.2191696166992,127.5462265014648,127.167724609375,127.5252075195312,129.8841400146484,131.2426910400391,131.3919219970703,131.0637817382812,130.5828857421875,130.0022277832031,128.4269104003906,125.3607635498047,123.7025756835938,123.4995880126953,123.7212982177734,123.7777862548828,123.4357604980469,123.2277984619141,122.9462051391602,123.2405624389648,123.0194931030273,123.111213684082,123.2791748046875,122.5933837890625,122.3533096313477,122.0694427490234,122.0678329467773,124.1328735351562
132.6840209960938,135.1130218505859,135.5763397216797,135.3190307617188,134.0279846191406,131.5015411376953,128.7808532714844,127.6376113891602,126.9990921020508,128.0304412841797,128.5185852050781,128.4844360351562,127.7698135375977,128.3364715576172,129.2314300537109,129.9219055175781,128.2743530273438,126.3951797485352,126.4040908813477,126.5280456542969,126.7121353149414,127.238166809082,127.6065216064453,127.6558609008789,127.830680847168,129.7618865966797,131.5104522705078,133.5091094970703,134.066162109375,134.2320404052734,134.3901672363281,133.8294982910156,133.5564727783203,132.4334564208984,130.3753204345703,128.2319183349609,128.1863861083984,127.9894866943359,128.1512908935547,127.9324722290039,128.1099700927734,128.0499725341797,125.4829635620117,126.9122085571289,127.6689147949219,128.1285400390625,128.5461273193359,128.4390716552734,128.5938262939453,128.8784484863281,128.7429504394531,129.5471496582031,133.8667907714844,135.2363586425781,135.4966430664062,136.0828857421875,136.7809295654297,137.3806915283203,138.3013763427734,139.2076721191406,139.7708587646484,140.5655212402344,140.8341827392578,140.5450897216797,139.8595275878906,139.1675720214844,137.9617767333984,137.0635528564453,136.6331634521484,137.2338256835938,139.4381103515625,139.9742736816406,140.3756103515625,141.0087585449219,140.5643005371094,141.3161010742188,141.4472503662109,141.4601898193359,141.4960784912109,141.4713592529297,141.4762115478516,141.1548767089844,141.3772583007812,140.9781036376953,140.8800201416016,140.8571014404297,141.1993255615234,141.1257934570312,141.2787322998047,141.4607696533203,142.1806335449219,142.4944763183594,142.4453277587891,142.4544525146484,142.4739074707031,142.6421508789062,143.6542663574219,144.8816680908203,145.5174560546875,145.5593719482422,145.7071990966797,145.8174133300781,144.8419647216797,143.8903656005859,143.6890716552734,142.7845764160156,140.4748840332031,137.7341613769531,136.5635986328125,135.962646484375,134.3870544433594,129.2063140869141,126.5822525024414,126.1337661743164,126.594108581543,128.8696594238281,130.7647094726562,131.6455688476562,131.7114410400391,131.532958984375,130.9970397949219,128.6208190917969,127.8733444213867,126.6063537597656,125.3815231323242,125.0639266967773,124.499885559082,124.2553787231445,123.1504287719727,123.1643142700195,123.447998046875,124.198112487793,124.5055084228516,124.5615768432617,124.8389129638672,124.4528732299805,123.8593444824219,123.5216445922852,124.5943984985352,125.5931930541992,127.0004806518555,127.4604263305664,127.8598022460938,129.6136322021484,131.0720825195312,131.6113128662109,131.4120635986328,130.6389007568359,129.3267669677734,128.1490783691406,126.4597396850586,124.0944213867188,123.2460556030273,123.3086547851562,123.4293518066406,123.2509765625,122.9740600585938,123.050910949707,122.8735809326172,122.4881362915039,122.2520523071289,122.269905090332,122.1791000366211,122.1472625732422,121.6738662719727,121.7551879882812,122.6980361938477
132.69873046875,133.8275451660156,132.6741943359375,132.6767425537109,133.1378784179688,133.2474060058594,131.1906585693359,127.7873382568359,126.4369812011719,126.5205001831055,127.0303192138672,127.3964996337891,127.3800201416016,126.885124206543,126.4858169555664,126.2781066894531,125.9399490356445,126.0605926513672,126.2113647460938,126.3532257080078,126.4678649902344,126.6024169921875,126.943115234375,126.9065933227539,128.0935974121094,130.2261047363281,131.7789611816406,133.1792602539062,134.2485198974609,134.5792083740234,134.9298553466797,134.3572082519531,132.6624908447266,131.9517517089844,129.8811950683594,127.8936614990234,128.0077056884766,127.6991729736328,127.9086990356445,127.8330917358398,127.5662841796875,126.3063583374023,125.884521484375,127.8781967163086,128.1192321777344,128.002685546875,128.1381683349609,127.9533309936523,127.9996719360352,128.4609527587891,129.1569976806641,129.4260864257812,132.9002227783203,134.50537109375,134.9871826171875,135.6548309326172,136.8827362060547,137.9864807128906,139.3800659179688,140.2474212646484,140.2691802978516,140.661865234375,140.8096008300781,139.7608642578125,138.0571136474609,138.1578979492188,143.1319122314453,150.6475524902344,151.3616790771484,149.2378845214844,144.2772064208984,138.7979736328125,137.9807434082031,138.2329711914062,139.3686370849609,140.9731292724609,141.39111328125,141.3467254638672,141.5527496337891,141.6710662841797,141.2939147949219,140.7976989746094,140.5777587890625,140.6924743652344,140.7142639160156,140.7673492431641,140.83544921875,140.7704925537109,140.7592468261719,140.7809600830078,142.146484375,142.2777862548828,142.5595245361328,142.9790496826172,142.6985321044922,142.6225433349609,143.0311584472656,144.8067626953125,145.5730285644531,145.7026672363281,145.7292785644531,146.0958099365234,145.7109222412109,145.0609436035156,144.2537078857422,143.8380279541016,143.1118774414062,139.8518524169922,138.0086669921875,136.4808502197266,134.7186126708984,128.9489898681641,126.5415573120117,126.0377578735352,125.802375793457,127.2706756591797,129.8820495605469,130.8957824707031,130.974365234375,130.4992370605469,130.3618621826172,129.7474060058594,127.5459976196289,125.945182800293,124.2977905273438,124.5488662719727,124.1853103637695,123.0318832397461,122.9467620849609,123.1377944946289,123.8755722045898,124.0572280883789,124.4695434570312,124.4974670410156,124.8069839477539,124.4866790771484,123.5484466552734,123.502082824707,124.4870681762695,126.4426193237305,127.7123260498047,128.0431365966797,128.0819091796875,129.8618927001953,130.3990478515625,131.8868713378906,131.6120300292969,131.0045928955078,129.2990875244141,128.1363677978516,126.1520004272461,123.4701156616211,122.9699401855469,122.9772262573242,123.3201522827148,123.2104034423828,123.0972518920898,122.8267517089844,122.3826370239258,122.3077545166016,122.1214065551758,122.1947402954102,122.1453323364258,121.9935455322266,121.6216430664062,121.4409790039062,121.6636505126953
131.8107604980469,131.1428985595703,130.6893005371094,129.9509582519531,129.8557891845703,129.9698181152344,128.6484527587891,127.4906997680664,125.6465454101562,125.7532043457031,126.2230834960938,127.1209030151367,127.2311706542969,127.096565246582,126.038932800293,125.5554656982422,125.6926879882812,125.8409805297852,125.9895248413086,126.1449737548828,126.2433776855469,126.3385696411133,126.4147720336914,126.5477600097656,127.8809967041016,130.534423828125,131.761962890625,134.0862274169922,134.5859375,134.7534027099609,134.9897918701172,134.0249481201172,132.1294097900391,130.8255004882812,128.4584655761719,127.5932464599609,127.7777328491211,127.5684204101562,127.5758743286133,127.5804672241211,126.9941482543945,124.8932037353516,124.6946029663086,126.338981628418,127.4223175048828,127.7419738769531,127.9354019165039,127.9962310791016,128.0235443115234,128.5289154052734,130.9884185791016,131.9601898193359,133.5534210205078,133.8904418945312,134.3376312255859,135.5886993408203,136.2920684814453,138.6969299316406,140.1048583984375,140.6084136962891,140.8357543945312,140.9423980712891,140.8075103759766,140.5520935058594,138.1590881347656,142.3262939453125,150.0017242431641,157.6242218017578,161.3195343017578,156.5351104736328,151.0999298095703,145.4453430175781,139.7877960205078,138.0098419189453,139.2602081298828,140.7520141601562,141.359375,141.2369079589844,141.4053192138672,141.9065093994141,142.1371154785156,141.010498046875,140.1843414306641,140.3717803955078,140.580322265625,140.6807861328125,140.1565093994141,139.7632598876953,140.0478973388672,140.3550262451172,141.0586090087891,141.6405029296875,142.4750213623047,142.6658020019531,142.8018951416016,142.6661376953125,143.0810699462891,144.5722503662109,145.2641906738281,145.5750579833984,145.4981536865234,145.8321380615234,145.8318176269531,145.5574035644531,145.18212890625,144.9139862060547,144.4461669921875,141.2027130126953,139.8778991699219,138.5306854248047,133.87548828125,128.0914764404297,126.8388519287109,126.6317138671875,125.4836349487305,125.3591613769531,126.8831634521484,129.2117004394531,129.6352081298828,129.7052154541016,129.5786743164062,128.5702362060547,126.9874038696289,125.878059387207,124.2085418701172,123.9367141723633,123.0540084838867,122.8042755126953,122.8587951660156,123.660400390625,123.5909805297852,123.8041076660156,123.9462661743164,124.2387084960938,124.3456802368164,124.2163238525391,123.5036468505859,123.350830078125,123.6296463012695,125.5757904052734,127.3640441894531,127.7877960205078,127.9410705566406,129.1861114501953,130.8495941162109,131.9374694824219,131.82080078125,131.7760314941406,130.7890777587891,127.9400329589844,125.9379425048828,123.623779296875,122.8570327758789,122.7780151367188,122.7276229858398,122.6641082763672,122.6014938354492,122.3387603759766,122.3711395263672,122.279052734375,122.0969314575195,122.0188980102539,121.8344650268555,121.5805587768555,121.4173736572266,121.0557632446289,121.2398529052734
131.8339233398438,131.4687347412109,131.1275177001953,130.367919921875,129.7985076904297,128.9624938964844,128.1230163574219,127.0964050292969,126.4776229858398,125.7057952880859,125.7780609130859,126.8054580688477,126.7700271606445,126.3637313842773,125.4350433349609,125.4179382324219,125.548713684082,125.6588973999023,125.7879638671875,125.9389572143555,126.0509338378906,126.1446075439453,126.2378845214844,126.4710540771484,128.5670013427734,131.2593688964844,132.0839385986328,134.7950592041016,134.6629486083984,134.8423767089844,134.9758911132812,133.6827850341797,132.1865692138672,130.3740997314453,127.6967086791992,127.3664932250977,127.5188217163086,127.3657836914062,127.2491073608398,127.2206420898438,126.1399459838867,124.7719421386719,124.2344055175781,125.3327484130859,126.9476089477539,127.7278289794922,127.6949081420898,127.6998596191406,127.6474609375,129.0539398193359,132.0600891113281,132.8321228027344,133.1460723876953,133.4425659179688,133.7005615234375,135.4779815673828,136.5017395019531,138.4681854248047,139.8226013183594,140.324462890625,140.8304595947266,141.1392059326172,140.9417572021484,140.4241943359375,138.5644378662109,142.6080780029297,148.9656524658203,154.0368041992188,156.1313629150391,153.7064514160156,150.6680908203125,147.551025390625,143.7660827636719,139.3896636962891,141.1092681884766,140.6171264648438,141.2713623046875,141.0115356445312,140.7371673583984,140.7191619873047,140.7725067138672,140.2328338623047,140.1201019287109,140.0954132080078,140.154541015625,139.9132690429688,139.1813812255859,138.8207397460938,139.175048828125,139.7304992675781,140.4828186035156,140.4884490966797,141.0164489746094,142.2212524414062,142.8082885742188,142.7801818847656,143.0058746337891,144.4857788085938,145.080078125,145.3375091552734,145.3656005859375,145.3125762939453,145.6171112060547,145.4707489013672,145.3063812255859,145.0076904296875,144.4630432128906,142.1496734619141,140.353515625,139.6404724121094,135.4288482666016,129.62353515625,127.869026184082,127.9677124023438,126.0825119018555,124.9728851318359,124.7937088012695,125.8918380737305,127.9569244384766,127.9881973266602,127.551887512207,127.5052261352539,127.6750411987305,126.8558959960938,126.1555786132812,124.5532150268555,122.729118347168,122.5314559936523,123.0999908447266,123.6133651733398,123.6343765258789,123.5010833740234,123.8547058105469,123.9274520874023,124.019905090332,123.8843612670898,123.4938354492188,123.0679550170898,123.028694152832,124.2010192871094,126.4673233032227,127.4985046386719,127.7608337402344,130.0360717773438,131.5483093261719,131.7692718505859,131.8739013671875,131.84326171875,130.8210296630859,128.7091064453125,126.2934341430664,123.6281127929688,122.5421981811523,122.400390625,122.6363372802734,122.3375244140625,122.2294235229492,122.2947692871094,122.2792434692383,121.9350357055664,121.5573196411133,121.5839538574219,121.6052703857422,121.6451187133789,121.3309631347656,121.002197265625,120.9384613037109
131.8883361816406,132.2266082763672,132.8731689453125,133.4106597900391,133.4595947265625,132.3050994873047,130.3522338867188,129.8029327392578,129.2041625976562,127.5241470336914,126.3008041381836,125.7554244995117,126.1287155151367,125.7845687866211,125.0934677124023,125.2546234130859,125.3786163330078,125.4495010375977,125.5646514892578,125.6772155761719,125.8237609863281,125.9377136230469,126.2591247558594,127.67333984375,130.1959381103516,131.7388000488281,132.6567077636719,134.4376373291016,134.7334747314453,134.6623840332031,134.7298278808594,132.9712066650391,131.6614379882812,129.7297821044922,127.3065567016602,127.2244567871094,127.2522735595703,127.0476150512695,127.0202178955078,127.0703125,126.936653137207,126.2667541503906,125.2144393920898,124.1263122558594,125.9474868774414,127.591194152832,127.5699005126953,127.3350067138672,127.3757247924805,128.8261871337891,131.276123046875,132.4220428466797,132.7452239990234,133.5853271484375,133.8908081054688,135.6972045898438,137.3300628662109,139.1399841308594,139.5576782226562,139.8509521484375,140.426513671875,140.9369964599609,140.8618011474609,140.5864868164062,138.2463073730469,138.9357147216797,143.893798828125,148.8277130126953,150.4218444824219,148.9357147216797,145.9046478271484,142.8662567138672,139.8473052978516,138.0956420898438,138.6962280273438,139.844482421875,141.1716613769531,140.7876892089844,140.5317687988281,140.389404296875,140.2624053955078,140.0787353515625,139.8576965332031,139.805419921875,139.802001953125,139.6384582519531,139.03564453125,138.6993713378906,139.6475830078125,139.6776428222656,140.2304992675781,140.8887023925781,141.9956665039062,142.9111022949219,143.1129455566406,142.9209136962891,142.9234008789062,144.5147399902344,144.6751098632812,144.8660125732422,144.9640045166016,144.8616485595703,145.192626953125,145.5294799804688,145.0480804443359,144.9180603027344,144.9191436767578,144.4975738525391,143.6347808837891,141.068115234375,137.2922210693359,133.1068878173828,129.0888366699219,129.2844390869141,128.7523651123047,126.1944351196289,124.4834289550781,124.0510864257812,123.9770584106445,125.4850845336914,127.0940780639648,127.3787612915039,127.6243743896484,127.2425231933594,125.0732421875,122.8502960205078,122.4651184082031,122.5005187988281,123.0655288696289,123.0368194580078,123.4060440063477,123.5398025512695,123.6857681274414,123.535285949707,123.5447006225586,123.6858749389648,123.6020812988281,122.7471771240234,122.7389526367188,123.5341186523438,125.958137512207,127.4688873291016,127.7795257568359,128.3824920654297,130.8224792480469,131.2116546630859,131.4838409423828,131.1973571777344,129.7046203613281,128.170166015625,125.739860534668,123.6513748168945,122.3199844360352,122.0491027832031,122.3035354614258,122.3395538330078,122.2024536132812,121.8466567993164,121.7405471801758,121.5945053100586,121.3008270263672,121.343864440918,121.4306106567383,121.2114944458008,121.1579360961914,120.7573394775391,120.5517730712891
131.7096710205078,131.5867004394531,132.06005859375,133.1758270263672,133.7269744873047,133.5210876464844,132.6448516845703,131.6944732666016,130.4519805908203,129.2523498535156,127.6520843505859,126.0467224121094,125.3556442260742,124.9682922363281,125.001823425293,125.0865020751953,125.1794815063477,125.284065246582,125.3819885253906,125.5301818847656,125.6208572387695,125.8057098388672,127.5518646240234,128.3045959472656,131.0836791992188,131.9208374023438,133.7723846435547,134.5928192138672,134.7088775634766,134.7168273925781,134.5237121582031,132.4962921142578,130.9190063476562,128.496826171875,126.9961166381836,127.0818099975586,126.9452285766602,126.9827423095703,126.7762908935547,126.8965759277344,126.7154998779297,126.5830001831055,125.8496780395508,124.8875274658203,125.65185546875,127.174690246582,127.4709396362305,127.4071731567383,127.5593414306641,128.9366455078125,131.6464538574219,132.0417175292969,132.6165924072266,133.4075622558594,134.5542755126953,136.3331146240234,137.6437072753906,138.8047637939453,138.8119049072266,139.4699401855469,139.8810729980469,140.1366882324219,140.3867340087891,140.56689453125,139.5479125976562,137.5733184814453,138.9203796386719,142.8884124755859,144.8528289794922,143.6005249023438,141.1412048339844,138.5792388916016,138.1476287841797,138.0412292480469,138.6664276123047,140.4656524658203,140.9325408935547,140.7088928222656,140.5652465820312,140.2970733642578,140.224365234375,139.9472503662109,139.7773895263672,139.5913848876953,139.4752807617188,139.3759002685547,139.3623504638672,139.3721160888672,139.3740692138672,139.4469604492188,140.6888732910156,141.4373474121094,142.0934600830078,142.7518615722656,143.1963043212891,143.1004943847656,142.9842529296875,144.1779632568359,144.4386138916016,144.4179077148438,144.6205902099609,144.5470123291016,144.4026489257812,144.8153839111328,145.4124298095703,145.1896209716797,144.6219635009766,144.2015228271484,143.9422912597656,141.4421844482422,137.6740570068359,135.735107421875,131.0872497558594,130.4783325195312,130.7730102539062,128.8347930908203,127.0992660522461,124.1312789916992,123.6524505615234,123.4598388671875,123.9583053588867,126.3329772949219,126.6586608886719,126.8663330078125,125.1145706176758,122.4007568359375,122.178337097168,122.7501068115234,123.1241989135742,123.1907348632812,123.4368209838867,123.4542846679688,123.3729248046875,123.7008438110352,123.8290634155273,123.5618362426758,123.3462142944336,122.8108367919922,122.5812530517578,122.5158538818359,125.0813140869141,127.2856140136719,127.8716888427734,128.3407287597656,129.7847595214844,130.1129150390625,130.5249481201172,130.4758148193359,130.2870635986328,127.8481140136719,125.9971160888672,124.0166473388672,122.3596572875977,121.872444152832,121.928337097168,122.000846862793,121.8340682983398,122.0131301879883,121.6712188720703,121.6376190185547,121.112190246582,121.1101913452148,120.8128890991211,120.7554397583008,120.8799362182617,120.7959442138672,120.2921371459961
131.78662109375,131.7821044921875,132.2307434082031,133.5764923095703,134.4213409423828,134.2297515869141,133.7591400146484,132.5210571289062,131.4859313964844,130.1970672607422,128.8693237304688,127.7950592041016,126.5395050048828,124.9013137817383,124.9272918701172,124.9026870727539,124.9178848266602,125.0242385864258,125.1880187988281,125.3116836547852,125.4550552368164,127.134521484375,128.5666809082031,129.3832855224609,131.2073974609375,132.1727142333984,134.31201171875,134.7148742675781,134.7704315185547,134.6015167236328,134.3937225341797,132.2392883300781,131.5693511962891,128.1027374267578,126.6589126586914,126.9067306518555,126.6896743774414,126.7657852172852,126.5473937988281,126.7175140380859,126.574333190918,126.4089660644531,126.1338119506836,124.6235580444336,124.6415252685547,126.8658905029297,127.2984771728516,126.8891220092773,126.7259216308594,127.9461898803711,131.02880859375,132.0329132080078,132.4904937744141,133.2697601318359,133.43359375,133.5168609619141,133.5910339355469,136.0671539306641,137.6868438720703,139.5325164794922,139.7192077636719,139.9111480712891,140.03125,139.9667663574219,139.1565704345703,138.7153167724609,138.4547424316406,138.6076812744141,140.5096893310547,138.9522552490234,139.0403442382812,138.9144134521484,138.7568664550781,139.2223510742188,139.9285430908203,140.7251586914062,140.7825164794922,140.6199493408203,140.5322570800781,140.6348876953125,140.6298980712891,140.4834899902344,139.8424835205078,139.6356964111328,139.522216796875,139.1933135986328,139.2829132080078,139.216796875,139.1764678955078,139.5256805419922,140.8748016357422,141.5344085693359,142.1436614990234,142.777587890625,143.1728973388672,143.2268371582031,143.1367950439453,143.7377166748047,144.3334350585938,144.5140228271484,144.2096557617188,144.1086578369141,143.8895416259766,144.2185821533203,144.852294921875,144.5726165771484,144.3168792724609,144.0396575927734,143.8887939453125,142.6745300292969,141.132080078125,139.6927642822266,136.0515289306641,132.1227264404297,132.1252136230469,131.7673492431641,130.7311859130859,127.3387908935547,124.7356796264648,123.3627624511719,123.0765228271484,123.0230102539062,123.5946044921875,124.8716583251953,124.2416229248047,122.1681518554688,122.1636428833008,122.6665115356445,122.7680892944336,122.6410598754883,122.9803848266602,122.852653503418,123.2479400634766,123.5435409545898,123.1826553344727,123.4538345336914,123.4397125244141,122.9894638061523,122.3603363037109,122.2152862548828,123.4474868774414,126.0842132568359,127.5817260742188,127.7793273925781,128.6650390625,130.11474609375,130.2390594482422,130.3866424560547,129.3165130615234,127.525016784668,126.0016784667969,124.1653823852539,122.3008041381836,121.6783599853516,121.5036544799805,121.7237243652344,122.1599426269531,121.9640808105469,121.3282623291016,120.9794311523438,120.9196395874023,121.1674957275391,120.7973785400391,120.7134628295898,120.7659759521484,120.7325744628906,120.1419296264648
133.8287353515625,133.9759521484375,134.1115875244141,134.6317443847656,134.9625701904297,134.9066467285156,135.1086273193359,133.1876983642578,132.3394012451172,131.2360382080078,130.1588439941406,130.0080718994141,129.4213714599609,126.8252487182617,125.358528137207,124.7502365112305,124.7735214233398,124.8637390136719,125.0446090698242,125.1648254394531,126.2428588867188,128.2624664306641,129.7365875244141,130.2446136474609,131.2256469726562,132.4770355224609,134.2686004638672,134.7020874023438,134.76416015625,134.9885101318359,134.1915435791016,131.6522674560547,130.3246154785156,127.2494049072266,126.4021530151367,126.6974258422852,126.4742889404297,126.6654510498047,126.5147857666016,126.530143737793,126.4541015625,126.2369079589844,125.6511459350586,124.7198791503906,124.2841491699219,126.0237731933594,127.2203521728516,127.5615310668945,127.722412109375,128.8019714355469,129.8957824707031,130.8977813720703,132.1443786621094,132.8989562988281,133.1599426269531,133.3352355957031,133.4991607666016,135.3038024902344,136.9362640380859,139.1219635009766,139.6574859619141,139.6431579589844,139.4850463867188,139.6383361816406,139.8423004150391,139.5653991699219,139.6301727294922,140.3704223632812,140.8130035400391,140.864501953125,140.9202728271484,141.0261077880859,141.0135192871094,140.7548065185547,140.5901489257812,140.5277557373047,140.5581512451172,140.3704071044922,140.2459564208984,140.3070983886719,140.3609619140625,140.0033569335938,139.7641296386719,139.7267456054688,139.7161560058594,139.3285827636719,139.2130279541016,139.1673889160156,139.2219543457031,139.392333984375,140.2409057617188,141.0668334960938,141.8697967529297,142.6331787109375,143.2928924560547,143.3683013916016,143.2088623046875,143.5375061035156,144.0756530761719,144.4879760742188,144.5259704589844,143.7203979492188,143.5972595214844,143.4598846435547,144.0751953125,144.6280975341797,144.3375549316406,144.0109405517578,143.8455200195312,143.2599029541016,142.3777313232422,142.1143951416016,140.0103912353516,134.9014587402344,133.3989105224609,133.5829467773438,132.6296539306641,128.2384338378906,124.6435546875,124.2072219848633,123.2062454223633,122.7148284912109,122.6530227661133,122.6545257568359,122.8697891235352,121.9811477661133,122.0090026855469,122.4260101318359,122.7816619873047,123.0920257568359,122.7668838500977,122.696907043457,122.8317642211914,122.9438781738281,122.7974090576172,123.3801345825195,123.1463165283203,122.9188919067383,122.1982040405273,122.1230850219727,122.3190307617188,124.6660995483398,125.2620620727539,126.5854034423828,127.5209045410156,129.574462890625,130.4151306152344,130.0517578125,128.8008270263672,127.1835250854492,125.468017578125,123.6395950317383,123.2899017333984,121.6301422119141,121.2805480957031,121.1224136352539,121.6272735595703,121.2892608642578,121.1592483520508,120.9787216186523,120.8211135864258,120.8183517456055,120.7025299072266,120.5726699829102,120.4895858764648,120.3017349243164,119.9879684448242
134.4147491455078,133.6464538574219,133.8705749511719,134.7836761474609,135.1622619628906,135.3298492431641,135.4869232177734,134.5715942382812,132.5964965820312,132.0337219238281,131.6497039794922,131.6664123535156,130.6291809082031,128.0400238037109,126.8206024169922,125.5916061401367,124.8266525268555,124.7823791503906,124.9286422729492,125.7856216430664,127.8079452514648,128.8644104003906,128.8356018066406,129.5191955566406,131.5781097412109,132.8653869628906,134.2558898925781,134.7234802246094,134.6800994873047,133.8363342285156,133.1907501220703,131.1594848632812,129.1376037597656,126.7916946411133,126.1702499389648,126.4648742675781,126.3100509643555,126.3410263061523,126.2440795898438,126.3436813354492,126.1953430175781,125.9849395751953,123.834831237793,123.9344482421875,124.546630859375,126.4698028564453,126.8615570068359,128.1284790039062,128.8924713134766,128.702880859375,128.3865966796875,128.8661499023438,129.3643493652344,131.5636901855469,132.0110321044922,132.5851287841797,133.1654815673828,134.5188598632812,135.5665283203125,137.2290496826172,139.0510559082031,139.4848327636719,139.3142852783203,139.4526672363281,139.3579406738281,139.4461517333984,139.6088714599609,139.6783752441406,140.2806549072266,140.6461334228516,140.7129821777344,140.6669769287109,140.3550720214844,140.7812042236328,140.2863922119141,140.2135314941406,140.1710510253906,139.9171142578125,140.0410308837891,139.8821868896484,139.7436370849609,139.5424041748047,139.4926605224609,139.8220367431641,140.0327301025391,140.0219573974609,139.8085327148438,139.1167449951172,139.1655120849609,139.4000091552734,139.5432891845703,140.403076171875,141.2509002685547,142.1784515380859,143.1082458496094,143.3873901367188,143.2837066650391,143.6111907958984,144.2562255859375,144.4507598876953,144.27734375,143.2733764648438,143.2117462158203,142.9738922119141,143.7017822265625,144.1622772216797,143.7564849853516,143.33251953125,143.2230834960938,143.3528137207031,142.1908874511719,142.0450286865234,142.0108947753906,138.9354248046875,137.0482635498047,134.9228973388672,134.9883880615234,130.9657745361328,128.0042724609375,125.3320693969727,124.6715469360352,123.8731994628906,122.9013519287109,122.1841201782227,121.8384323120117,121.8474578857422,121.7469329833984,122.0734024047852,122.145637512207,122.0842437744141,122.2564849853516,122.5646133422852,122.4397125244141,122.5829238891602,122.5749893188477,122.7522277832031,122.7222290039062,122.8600921630859,122.3111953735352,121.7919692993164,121.8086929321289,123.1680374145508,124.3948593139648,124.4602661132812,126.096076965332,128.3950958251953,130.2889251708984,130.1334533691406,127.8882293701172,126.3728637695312,125.8747482299805,125.5807571411133,124.3692398071289,122.4346694946289,121.1151275634766,120.9423751831055,120.9347534179688,121.0175476074219,121.6675262451172,120.9123840332031,120.6403732299805,120.4451675415039,120.160400390625,119.9101943969727,120.1123199462891,120.1766967773438,119.9248962402344
135.3497467041016,133.8819274902344,133.5197906494141,133.659423828125,134.7112731933594,135.1233062744141,135.2791900634766,135.0814666748047,134.6331481933594,132.7394256591797,131.8672485351562,130.7991943359375,129.4002227783203,127.8484878540039,127.0050430297852,126.6147003173828,125.6925277709961,125.8650207519531,126.4659881591797,127.2638244628906,127.8458099365234,128.2225646972656,128.3907775878906,130.1193084716797,131.6807556152344,131.6224670410156,132.0086975097656,132.8429260253906,132.9800415039062,132.3602142333984,131.5081939697266,129.0923156738281,127.9217376708984,126.2264175415039,126.0931396484375,126.1748809814453,126.3480682373047,126.2051467895508,126.0739440917969,126.1340866088867,126.0255813598633,124.4417114257812,124.1886901855469,124.783088684082,125.6550827026367,126.0546569824219,126.373405456543,127.9746017456055,130.5931549072266,130.7815551757812,129.9596099853516,129.1485900878906,129.2596130371094,129.9430999755859,130.5664825439453,131.5735778808594,132.7507171630859,133.9621887207031,134.0887603759766,136.3879241943359,139.1353302001953,139.1447906494141,139.4836273193359,139.7549591064453,139.6074371337891,139.5509185791016,139.4525604248047,139.6256866455078,140.4508514404297,140.5733947753906,139.9395294189453,139.8173522949219,139.8360900878906,139.9703979492188,140.0767211914062,139.7962341308594,139.8479156494141,139.4847717285156,139.7403259277344,139.76513671875,139.4228668212891,139.2195434570312,139.3704223632812,139.4009704589844,139.3807525634766,139.2347717285156,139.0462341308594,138.8376617431641,139.0433044433594,139.1741027832031,139.1838226318359,140.1125793457031,141.0529479980469,142.0290374755859,143.0370178222656,143.55078125,143.3177947998047,143.2468566894531,144.0363159179688,144.4984283447266,144.3398895263672,143.2516021728516,142.7335662841797,142.6364898681641,142.5774230957031,143.1273956298828,143.2193756103516,143.3816986083984,143.543701171875,142.9382476806641,142.7154235839844,142.2147369384766,141.8130950927734,141.4410095214844,137.0068817138672,135.9954071044922,136.717041015625,134.5674133300781,131.8158721923828,128.3383483886719,125.1665420532227,124.6885452270508,124.4091644287109,122.2102813720703,121.9923400878906,121.5660705566406,121.5326766967773,121.6662063598633,121.9669647216797,122.0850067138672,122.2715911865234,122.2483901977539,122.1370391845703,122.1005706787109,122.3015670776367,122.5080261230469,122.4334945678711,122.5726547241211,122.2454986572266,121.5514602661133,121.5103073120117,121.7550964355469,123.6657104492188,124.6545181274414,125.9350814819336,127.1962356567383,130.0716705322266,129.981201171875,129.5875244140625,127.7082672119141,125.9416580200195,125.4099578857422,124.3937072753906,123.4259872436523,122.335807800293,120.8474578857422,120.5653305053711,120.4215545654297,120.5964508056641,120.7132186889648,120.4689636230469,120.2890472412109,120.1789703369141,120.1135406494141,120.1461563110352,119.9939727783203,119.6725387573242
135.0007629394531,136.30859375,135.2074584960938,133.2928161621094,133.3423767089844,134.5374603271484,135.0586090087891,135.1186828613281,135.2909851074219,134.1024017333984,132.1544799804688,131.2138977050781,129.7703399658203,128.0646820068359,127.1877288818359,127.0096893310547,126.8440933227539,127.5851516723633,127.4435348510742,127.5328903198242,127.6091003417969,127.9183959960938,128.3399047851562,130.3690338134766,132.2265625,132.4808654785156,131.7633056640625,131.8986358642578,131.8251953125,130.8010406494141,129.71240234375,128.1258087158203,126.9080047607422,125.8254470825195,125.9848175048828,125.919921875,126.2492141723633,125.8722686767578,125.9731521606445,125.9433288574219,125.1185455322266,123.4710540771484,123.6010818481445,124.7565689086914,125.4219589233398,125.639404296875,126.0684127807617,130.2834167480469,132.9420318603516,133.2877807617188,132.694580078125,133.7931213378906,133.7490997314453,133.0613708496094,133.7990875244141,136.2660980224609,137.2426910400391,133.7733154296875,133.7243957519531,138.3329925537109,139.0199890136719,139.0317993164062,138.9422302246094,139.2111053466797,139.146240234375,139.2313079833984,139.2396087646484,139.3798217773438,140.1176300048828,140.0917816162109,140.0250091552734,139.6656799316406,139.6121368408203,139.6267852783203,139.392822265625,139.6624298095703,139.6756439208984,139.5608825683594,139.5218505859375,139.5141906738281,139.4781646728516,139.1048583984375,139.1341094970703,139.0232086181641,138.9458618164062,138.9546051025391,138.8978118896484,138.8077087402344,139.1489715576172,139.1835327148438,139.2517547607422,139.9717559814453,140.9718170166016,141.9687805175781,142.9628295898438,143.5612640380859,143.2262115478516,143.0973815917969,143.0743865966797,142.6660766601562,143.9508666992188,143.7011260986328,142.3612365722656,142.3353729248047,141.9984893798828,142.3181457519531,142.7718048095703,142.7373199462891,142.4683227539062,142.4811706542969,141.1277770996094,141.2915344238281,141.2918853759766,141.6026763916016,139.3831481933594,137.1341857910156,137.4848937988281,136.4161529541016,134.2804412841797,131.2758331298828,127.8653945922852,125.424186706543,124.7448120117188,123.2868270874023,122.803108215332,121.5260009765625,121.2348251342773,121.3410720825195,121.6913757324219,121.6895980834961,121.9176940917969,121.9446868896484,121.8062973022461,121.8289108276367,122.0164794921875,122.0318984985352,121.881103515625,122.3452758789062,122.0505523681641,121.5228500366211,121.260009765625,121.1714248657227,122.2742233276367,124.3434753417969,127.0275573730469,128.5967254638672,128.9199066162109,129.8920440673828,129.5518188476562,128.7595825195312,128.1647796630859,127.3877563476562,125.3472061157227,124.8297729492188,123.7798767089844,122.0577621459961,120.6850280761719,120.323371887207,120.0372543334961,120.1753158569336,120.2775573730469,120.5937805175781,120.7689056396484,120.0916442871094,120.0254745483398,119.8973083496094,119.3783798217773
136.4336853027344,136.4206085205078,135.3377075195312,133.9549560546875,132.7125701904297,133.4770965576172,134.7129211425781,134.8240814208984,134.8034210205078,134.4495391845703,132.7608795166016,131.9501190185547,130.9720001220703,128.6988067626953,128.1904754638672,127.9677047729492,127.7566452026367,127.5162811279297,127.4481506347656,127.572265625,127.6350479125977,127.7142105102539,127.5915603637695,128.8681945800781,130.9198455810547,131.6578216552734,131.4179229736328,131.6989593505859,131.7395782470703,130.093017578125,128.1925811767578,126.4078674316406,125.7223358154297,125.514778137207,125.8436050415039,125.8140106201172,126.0038986206055,125.6467742919922,125.9355163574219,125.8255157470703,123.5529098510742,123.4920120239258,123.6363220214844,125.1255035400391,125.4377136230469,125.616455078125,127.0063171386719,133.805908203125,133.7914428710938,134.4436492919922,134.5788879394531,133.9929656982422,133.6977996826172,133.7790222167969,133.8692779541016,133.8951568603516,136.1919860839844,135.9156188964844,135.7452850341797,138.0270385742188,138.94921875,138.7259521484375,138.6662902832031,138.7703552246094,139.1095428466797,139.0058898925781,138.8134765625,138.7894134521484,138.9395141601562,138.7554931640625,138.885498046875,138.9389495849609,138.8960571289062,139.5414428710938,139.2832183837891,139.3678894042969,139.2664642333984,139.514404296875,139.3726654052734,139.1334075927734,139.4988250732422,139.2046661376953,139.0213775634766,138.7626037597656,138.815185546875,138.788818359375,138.6271362304688,138.7147216796875,138.8646697998047,139.0902862548828,139.1761474609375,139.6957550048828,141.0384674072266,142.0828704833984,143.1158294677734,143.2835083007812,143.06494140625,142.8560943603516,142.7430877685547,142.446533203125,143.1084899902344,142.9475555419922,142.2660217285156,141.8500671386719,141.6271209716797,141.3876800537109,141.1880035400391,141.0513305664062,140.90771484375,140.7324676513672,140.5263671875,140.3783416748047,140.8322143554688,141.2468872070312,139.7168426513672,138.4903411865234,138.3715667724609,138.1643218994141,136.7035827636719,135.4734497070312,132.370849609375,128.6694030761719,125.3596878051758,123.7518157958984,123.2030410766602,122.038688659668,121.4117660522461,121.1050338745117,121.184944152832,121.4879531860352,121.7685546875,121.6000595092773,121.6577072143555,121.5967178344727,121.8387680053711,122.0214614868164,122.0301132202148,122.2454299926758,121.6072387695312,121.3853454589844,120.9834365844727,120.9180450439453,122.0633010864258,124.2773513793945,126.6825408935547,127.9651031494141,128.7127685546875,128.7216033935547,128.4690399169922,128.1011505126953,127.8792419433594,127.85595703125,127.6391525268555,126.076774597168,123.8656768798828,122.7849807739258,122.2370300292969,120.6611557006836,120.0155181884766,119.7215042114258,119.7405166625977,120.1903381347656,120.1707992553711,120.0580673217773,119.7861938476562,119.7738342285156,119.4054794311523
136.7262878417969,136.4633941650391,135.4125671386719,134.1993408203125,132.4462890625,131.4595794677734,132.8213195800781,133.8375854492188,133.1121978759766,131.9809265136719,131.3501434326172,130.9467926025391,129.9098815917969,128.5459747314453,128.5376434326172,128.5107879638672,128.2877807617188,127.4938430786133,127.4489898681641,127.5608215332031,127.6225738525391,127.5133209228516,127.0527038574219,126.919303894043,128.6905670166016,129.9938201904297,130.736572265625,130.7288360595703,131.7099304199219,129.9442901611328,127.8622741699219,125.5037994384766,125.1832656860352,125.4101104736328,125.5959854125977,125.5769348144531,125.7640380859375,125.3896865844727,125.6229782104492,124.9435577392578,122.6265487670898,123.0484619140625,123.7969741821289,124.9101181030273,125.6430969238281,127.5729293823242,129.5273284912109,132.0557861328125,131.7026672363281,131.2661285400391,132.2039337158203,133.5919494628906,133.9041900634766,133.8057098388672,133.8219909667969,133.7731323242188,133.7093658447266,131.1999816894531,132.2460784912109,135.1191101074219,137.2328491210938,137.1599426269531,137.2804412841797,137.3130493164062,138.0909881591797,138.873291015625,139.0580902099609,138.7813720703125,138.8138275146484,138.5257415771484,138.5037078857422,138.5830078125,138.5703430175781,138.5672454833984,138.301513671875,138.0743865966797,138.0996704101562,138.2514038085938,138.4610900878906,138.58447265625,138.2052764892578,138.3832092285156,138.2923126220703,138.4662628173828,138.6618194580078,138.62109375,138.4227294921875,138.5509948730469,138.6354827880859,139.2112121582031,139.2146148681641,139.1403198242188,140.5609893798828,142.1553192138672,143.5254058837891,143.4160919189453,143.3546600341797,142.5783081054688,142.4570159912109,142.2106781005859,142.1905517578125,141.9752807617188,141.5791931152344,141.3064727783203,141.1492004394531,140.8833618164062,140.8143768310547,141.2572021484375,141.1156158447266,140.8883972167969,140.4589691162109,140.2836303710938,139.8616180419922,139.6302642822266,139.6521301269531,139.5932922363281,139.0074310302734,138.9911956787109,138.5841827392578,137.7434692382812,136.7905883789062,135.0305328369141,131.8033905029297,127.3241958618164,125.1234359741211,124.09130859375,122.9027328491211,120.8654022216797,120.7403259277344,121.1512756347656,121.3574142456055,121.3779449462891,121.5523529052734,121.3892822265625,121.6439895629883,121.9515686035156,121.5489196777344,121.6290512084961,121.8117446899414,121.6407470703125,120.86767578125,120.701545715332,120.8767471313477,124.1013107299805,125.765739440918,126.8372268676758,127.6588745117188,128.1087646484375,127.7416076660156,127.7129516601562,127.8368682861328,128.3511047363281,127.7710266113281,125.9284515380859,125.1408996582031,123.8915634155273,123.8218460083008,122.6155853271484,120.887092590332,119.8165740966797,119.4160079956055,119.1800308227539,119.6115036010742,119.7024765014648,119.7755355834961,119.8879318237305,119.5426559448242
136.4912719726562,136.2578430175781,135.5260009765625,134.4474487304688,133.2420959472656,130.2440643310547,129.9344024658203,130.2792053222656,130.4684600830078,130.5354614257812,130.2141265869141,129.3372650146484,128.3562774658203,128.5266265869141,128.4725036621094,128.2591247558594,127.8695755004883,127.3693161010742,127.2665100097656,127.2373733520508,127.3677062988281,126.1941909790039,124.7448501586914,125.8937225341797,127.0759658813477,128.1946258544922,128.4793090820312,128.6943054199219,129.4535980224609,128.8843536376953,126.3307571411133,124.9516525268555,124.95556640625,125.3220291137695,125.3610305786133,125.6281051635742,125.2365875244141,125.2346954345703,125.9772262573242,124.0265655517578,122.2483367919922,123.2217330932617,124.7282562255859,124.8693695068359,126.2998046875,128.3119812011719,130.1636047363281,129.6238555908203,129.0387115478516,129.7658996582031,131.7250671386719,133.4971618652344,133.7441558837891,133.7314453125,133.7715454101562,133.7156066894531,133.6622467041016,132.1849365234375,131.9530181884766,135.0230712890625,137.1540374755859,137.0759429931641,137.0130310058594,137.0832214355469,137.9704895019531,138.2444000244141,138.4718322753906,138.3127593994141,138.3483734130859,138.3413238525391,138.4406585693359,138.468017578125,138.3863525390625,137.9590911865234,137.6668548583984,137.5147247314453,137.4128570556641,137.548828125,137.7520294189453,137.7142944335938,137.7012786865234,137.5547637939453,137.6549835205078,138.1953735351562,138.3336791992188,138.3335876464844,138.3123321533203,138.3432769775391,138.0928192138672,138.7949066162109,139.1841735839844,139.1310424804688,139.8268432617188,141.4234619140625,142.8043365478516,143.1901702880859,142.3891143798828,142.1784973144531,142.1642303466797,141.9512329101562,141.7413482666016,141.5162200927734,141.2970123291016,140.890380859375,140.5081024169922,140.3069763183594,139.9129180908203,140.6929931640625,141.2630157470703,141.2273559570312,141.1552429199219,141.0269775390625,140.8420104980469,139.6689910888672,139.1620330810547,139.0603332519531,138.9770202636719,139.0250701904297,139.1292877197266,138.6211090087891,137.3344879150391,137.0782623291016,135.2535095214844,130.6832275390625,126.0963287353516,124.0126800537109,122.5276031494141,121.342643737793,120.5411682128906,120.650764465332,121.0882110595703,120.9909973144531,121.1623611450195,121.315544128418,121.5438690185547,121.7153472900391,121.5641021728516,121.4710693359375,121.2697830200195,121.2052154541016,121.0572891235352,120.3529510498047,120.3847045898438,121.1230545043945,124.4256134033203,126.5859375,126.9515762329102,127.3278427124023,127.6764526367188,128.2446594238281,129.0222473144531,129.2935791015625,127.8605422973633,127.6377639770508,126.1363220214844,125.3514175415039,124.5921630859375,124.1334228515625,123.4223022460938,121.4919052124023,119.5096817016602,119.109733581543,118.7459564208984,118.9707260131836,119.4054718017578,119.4812545776367,118.9999465942383
135.9459075927734,135.3722991943359,134.6007995605469,133.9797058105469,133.2177429199219,130.3852844238281,128.13037109375,129.2621917724609,130.0695495605469,130.2471618652344,128.7994995117188,127.3500747680664,126.464973449707,125.6611557006836,124.5718765258789,124.3263854980469,123.8401947021484,123.8149185180664,123.668083190918,123.3665161132812,123.3233184814453,123.5239334106445,124.124870300293,124.435173034668,125.4710998535156,126.6650161743164,126.4290771484375,126.3927536010742,126.1989974975586,125.1413269042969,124.4081268310547,124.5821838378906,124.9844741821289,124.9841079711914,125.3881759643555,125.3767242431641,125.0562591552734,125.2048721313477,125.4122161865234,124.2252197265625,122.3701782226562,123.1266174316406,124.6038055419922,124.9596252441406,126.544677734375,128.5584259033203,129.1111297607422,129.1201934814453,129.1118011474609,129.5187683105469,129.6573028564453,131.5352325439453,133.5928955078125,133.7906341552734,133.8051910400391,133.7743072509766,133.5308074951172,130.2228851318359,129.9206695556641,134.9937896728516,136.6361389160156,136.8695526123047,137.0042114257812,137.2070465087891,137.5701751708984,137.9891967773438,138.28173828125,138.0269165039062,138.4890899658203,138.5100250244141,138.4857635498047,138.3020172119141,137.9947662353516,137.5751342773438,137.149169921875,137.0144500732422,136.9919738769531,137.0460357666016,137.19775390625,137.3642425537109,137.3208618164062,137.3574829101562,137.3347778320312,137.7083435058594,137.7974700927734,138.0482635498047,138.1472473144531,138.0945434570312,138.1056213378906,138.3616485595703,138.8128204345703,138.9858551025391,139.1769256591797,140.4893798828125,141.7012329101562,141.8811340332031,141.6954956054688,141.8609008789062,141.9400634765625,141.7924346923828,141.5058898925781,141.5284881591797,141.5751647949219,141.2227935791016,139.9053955078125,139.6309051513672,139.2300567626953,139.6723175048828,140.6208190917969,140.9914855957031,140.8967895507812,141.1192932128906,140.9138641357422,140.3248443603516,139.5105133056641,138.8684692382812,138.5864715576172,138.5300598144531,138.7090301513672,138.6331024169922,138.6012420654297,138.4418792724609,137.9981384277344,133.7953491210938,127.9010467529297,123.7443923950195,122.3364944458008,121.1948013305664,120.561279296875,120.2307052612305,120.17578125,120.7489547729492,121.4175415039062,121.5497894287109,121.012321472168,120.9794006347656,120.9428176879883,121.0403137207031,121.0426940917969,121.3006439208984,121.1523284912109,120.3928298950195,120.1434173583984,120.3626403808594,123.475456237793,125.4432144165039,126.6683654785156,127.4836883544922,129.4061126708984,130.0311737060547,129.9204711914062,129.7424011230469,129.1840972900391,127.6303100585938,126.9150009155273,125.2192764282227,124.6827697753906,124.5205917358398,124.2187423706055,122.4672927856445,120.5719604492188,119.6115798950195,118.7107086181641,118.4421997070312,118.9375610351562,118.9130249023438,118.8700180053711
135.9385223388672,134.9385833740234,134.2720947265625,133.1586303710938,132.9731750488281,130.7028045654297,127.0092697143555,127.0644378662109,127.6261291503906,127.3426055908203,126.6232528686523,125.5407791137695,124.4115524291992,123.5793762207031,122.7167816162109,122.4292068481445,122.210205078125,122.5543441772461,122.772346496582,122.9165496826172,123.1574096679688,123.4687881469727,123.6423110961914,123.8057174682617,123.7989273071289,124.2223510742188,124.1373519897461,123.9405517578125,123.8120193481445,123.7566146850586,124.2776794433594,124.5992202758789,124.7153549194336,124.8522186279297,125.6716079711914,125.3287506103516,124.8717422485352,125.1780166625977,125.4143600463867,124.1783828735352,123.0432968139648,123.3525314331055,124.8357925415039,125.1306533813477,126.5884094238281,128.9387512207031,129.0746612548828,128.9666290283203,129.1741180419922,128.9831390380859,129.1986999511719,130.3924560546875,132.8799438476562,133.7955474853516,133.826416015625,131.8170471191406,128.58154296875,128.0315856933594,130.6193542480469,134.8419647216797,136.3463134765625,136.8186950683594,137.3671112060547,137.714111328125,137.5763244628906,137.9154510498047,138.1616821289062,138.0581207275391,138.7251892089844,138.7977600097656,138.6683654785156,138.7976379394531,138.5993499755859,138.1550750732422,137.0258331298828,136.8316802978516,136.9450836181641,136.8347473144531,137.0144348144531,137.1015319824219,137.0149841308594,137.0554351806641,137.1678619384766,137.3751220703125,137.4287567138672,137.6544799804688,137.87255859375,137.8556823730469,137.8988342285156,138.1123046875,138.2420043945312,138.3681945800781,138.3885955810547,138.9800720214844,139.8834533691406,140.7177429199219,141.3155975341797,141.5939331054688,141.8814239501953,141.4984283447266,141.3946228027344,141.2010803222656,141.5361938476562,141.1647796630859,139.6703338623047,138.8963012695312,138.6124572753906,138.1634216308594,139.2810974121094,139.7681579589844,139.7970581054688,140.3646850585938,140.2429809570312,139.8782043457031,139.6454772949219,139.3111114501953,138.4778747558594,138.1234741210938,138.1954956054688,138.5956420898438,138.6466979980469,138.5960388183594,138.1851043701172,134.6184997558594,129.2104644775391,125.1669845581055,122.9068832397461,122.4842147827148,121.0132141113281,120.1082000732422,120.0395431518555,120.4461441040039,121.0587768554688,120.7566604614258,120.6556015014648,120.5603332519531,120.6477279663086,120.7614593505859,120.934928894043,121.0195083618164,120.8673553466797,120.3702926635742,119.8446350097656,119.7583770751953,121.6328506469727,124.557258605957,126.9873504638672,127.4046096801758,128.9734802246094,130.156982421875,130.0069885253906,130.0748901367188,129.6143035888672,128.9888610839844,127.6589279174805,125.5827865600586,124.8378295898438,124.7583694458008,125.4483032226562,124.2021408081055,122.9415893554688,121.5966262817383,119.4003372192383,118.472038269043,118.1136322021484,117.9852676391602,118.4280090332031
135.6768341064453,134.439208984375,133.4264831542969,132.9280242919922,132.1473388671875,129.6064910888672,126.192008972168,125.5903549194336,125.4667587280273,124.7837219238281,124.1653137207031,123.7649917602539,123.24072265625,122.5930709838867,122.4663543701172,122.094856262207,122.001838684082,122.2576293945312,122.2395858764648,122.0248947143555,122.4146270751953,122.3314819335938,122.5816879272461,122.6116638183594,122.7229843139648,122.8275680541992,122.9499435424805,123.2667770385742,123.7042388916016,124.0538711547852,124.2314529418945,124.3713531494141,124.4630889892578,124.3932800292969,124.6530990600586,124.711555480957,124.5352096557617,125.1609573364258,124.6094055175781,124.3324203491211,124.5819473266602,124.6124572753906,124.4655990600586,125.6000061035156,127.3419723510742,128.8033142089844,129.1058807373047,129.003173828125,128.9925994873047,128.9869232177734,129.1806640625,129.2491912841797,131.2175140380859,133.7051239013672,133.7214813232422,131.0093841552734,127.9922103881836,126.5221786499023,128.4235687255859,134.343017578125,135.2871246337891,135.9833831787109,136.6060028076172,136.9835205078125,136.8943328857422,136.7631072998047,137.8566741943359,138.1086578369141,138.2616882324219,137.4457244873047,137.5002288818359,137.5672607421875,138.0802917480469,137.8246765136719,136.9696350097656,136.613525390625,136.5348510742188,136.4460144042969,136.6386566162109,136.7494964599609,136.7883758544922,136.6783294677734,136.9481964111328,136.9199371337891,137.2565612792969,137.3842315673828,137.44189453125,137.5447692871094,137.9630432128906,138.1053771972656,138.2280426025391,138.2581787109375,138.2474670410156,138.818359375,139.7510375976562,140.3749389648438,140.9596862792969,141.1940307617188,141.329833984375,141.4053497314453,141.2951354980469,140.9375762939453,140.7279815673828,140.6502532958984,140.0503540039062,138.1421203613281,137.8580780029297,137.2549591064453,137.6895599365234,138.8838806152344,138.9894104003906,139.3398132324219,139.3302001953125,139.5860290527344,139.66064453125,139.3570404052734,138.9136199951172,138.1326751708984,137.7384796142578,137.8113708496094,137.9651031494141,137.3894653320312,137.4080963134766,135.0467987060547,131.0158081054688,126.6803894042969,123.7885589599609,122.8501052856445,121.5514602661133,120.0126724243164,119.7430877685547,119.8643264770508,120.2368316650391,120.4373550415039,120.5665664672852,120.4338684082031,120.121467590332,120.4452362060547,120.5194396972656,120.4693222045898,120.4266967773438,120.3260116577148,119.6337890625,119.6299057006836,119.9799194335938,122.4889450073242,125.3479461669922,127.0566482543945,127.6268463134766,128.7988891601562,129.1868438720703,129.8052215576172,129.590576171875,129.6114349365234,129.2903594970703,127.8993225097656,126.4471740722656,126.8529052734375,126.3275375366211,125.6050262451172,123.7613830566406,122.0889663696289,119.9174728393555,118.8380813598633,118.2933120727539,117.8281402587891,117.7424926757812
131.7777404785156,131.1164245605469,130.4295654296875,128.8997802734375,127.5576171875,126.6523361206055,125.9294128417969,125.4501190185547,124.8932800292969,124.2842330932617,123.7935028076172,123.2386703491211,122.8724060058594,122.5637283325195,122.3764114379883,122.3080673217773,122.2177886962891,122.2036972045898,122.2646331787109,122.3818359375,122.4820938110352,122.5604248046875,122.6438064575195,122.7987823486328,122.9426956176758,123.1055679321289,123.2626647949219,123.4303359985352,123.5589599609375,123.9362564086914,124.337287902832,123.9003982543945,124.0217590332031,124.3271179199219,124.0401763916016,124.0884017944336,124.2296829223633,124.3296051025391,124.5825576782227,124.1973266601562,124.1417846679688,124.4026718139648,124.3815612792969,125.3333282470703,126.9081878662109,127.8915481567383,128.0220947265625,128.1634826660156,127.9583282470703,127.6075134277344,126.8464660644531,127.1185913085938,129.0513610839844,130.9305877685547,130.968505859375,129.2906799316406,126.9586029052734,125.5812377929688,128.9903411865234,134.3419036865234,135.0091552734375,135.6529083251953,136.0057983398438,136.1959075927734,136.0417938232422,136.07177734375,136.5680389404297,136.6305541992188,135.6768493652344,135.9164276123047,135.9398956298828,136.1445159912109,136.9535217285156,136.6982727050781,136.7859802246094,136.4864196777344,136.4482421875,136.6569061279297,136.4303436279297,135.4877319335938,135.8497619628906,135.9741058349609,135.8571472167969,135.8900604248047,135.9553070068359,137.3689880371094,137.4637756347656,137.3585510253906,137.8310089111328,138.1613464355469,138.2280731201172,138.2538299560547,138.2531127929688,138.5629577636719,138.920166015625,139.1170349121094,139.4501495361328,139.5248870849609,139.9014129638672,139.5818634033203,140.0279846191406,140.659912109375,140.4004974365234,140.4048004150391,139.7343597412109,138.0627593994141,136.9798278808594,136.6001892089844,136.1572418212891,137.6802062988281,137.8545379638672,138.6535034179688,138.5967254638672,138.9856719970703,138.7665100097656,138.8999176025391,138.4768218994141,138.02490234375,137.261962890625,137.2016448974609,137.2644348144531,137.116943359375,136.6016998291016,135.0880279541016,132.8824768066406,129.5916595458984,125.7004013061523,124.4896621704102,123.0661087036133,121.0089874267578,119.4943008422852,119.4105453491211,119.9532623291016,120.1017608642578,120.2543487548828,120.0580444335938,120.2098388671875,120.2394180297852,120.2682876586914,120.1369323730469,120.1363220214844,120.2664642333984,119.6800231933594,119.3816986083984,119.3590621948242,121.6854858398438,124.2605819702148,127.0446319580078,128.266845703125,128.6463317871094,129.0037384033203,129.8433837890625,129.6396942138672,128.633056640625,128.5913391113281,128.7271575927734,129.0154113769531,128.6556549072266,125.8903884887695,124.7902526855469,123.0793838500977,121.7936782836914,120.1560287475586,119.2568664550781,118.497932434082,117.822509765625,117.5630569458008
130.0376434326172,129.4109649658203,128.9517211914062,128.3617095947266,127.8334884643555,127.2291488647461,126.5172805786133,125.6575012207031,124.9045181274414,124.0761108398438,123.228401184082,122.6764068603516,122.4426956176758,122.4865646362305,122.2387847900391,122.1493911743164,121.9848709106445,121.6957092285156,121.8159255981445,121.7638626098633,122.0141220092773,122.0986099243164,122.1063919067383,122.4949645996094,122.4719924926758,122.875114440918,122.8763809204102,123.3857879638672,123.3502197265625,123.2604217529297,123.6402969360352,123.8798522949219,123.5280532836914,123.7986602783203,123.69873046875,123.709587097168,123.9622039794922,124.9037704467773,124.6391067504883,124.0884628295898,124.2125473022461,124.402458190918,124.8273010253906,124.6952819824219,125.6957626342773,126.0021438598633,125.6895980834961,125.6487350463867,125.9167556762695,125.8537063598633,124.94677734375,125.0316390991211,126.1005859375,126.3233795166016,126.5215911865234,125.9945373535156,125.5643157958984,125.5700073242188,127.5444564819336,134.5058288574219,134.5400848388672,134.8957366943359,135.2324981689453,135.3586578369141,135.5549468994141,135.6046447753906,135.5124359130859,135.7226409912109,135.7287902832031,135.7041625976562,136.0467834472656,136.1439819335938,136.1134338378906,136.4498748779297,136.6184387207031,136.2256622314453,136.2310028076172,136.1395721435547,135.3959350585938,135.8737640380859,136.2818450927734,136.4944458007812,136.4125061035156,136.2608795166016,136.1452941894531,137.0976257324219,137.4918365478516,137.1338043212891,137.5690612792969,138.1014709472656,137.47021484375,138.0363311767578,137.4923095703125,137.5459899902344,138.1125030517578,137.6246032714844,137.4017944335938,137.7081298828125,137.5030670166016,137.6534729003906,137.7215881347656,138.8004913330078,140.0190887451172,139.7994689941406,139.6244659423828,138.5612487792969,136.1730346679688,135.8636932373047,135.3045349121094,135.5357971191406,136.2475738525391,138.1203765869141,137.8377838134766,138.1463470458984,138.5883331298828,138.3662719726562,137.9681701660156,137.6762847900391,137.1672210693359,136.6550903320312,136.6996002197266,136.4735717773438,136.0064086914062,134.9683380126953,132.6092987060547,130.2454223632812,127.9028930664062,125.7678298950195,124.4301910400391,121.6090927124023,119.3237457275391,119.2595062255859,119.705322265625,119.7836685180664,120.1863098144531,119.8097686767578,119.7312164306641,119.8698501586914,120.0182189941406,120.0958480834961,120.2903213500977,120.3156051635742,119.7726593017578,119.1520004272461,119.0563125610352,119.409309387207,122.0181045532227,125.3276138305664,127.400764465332,128.0017547607422,128.7930450439453,128.8096771240234,128.4490203857422,128.0133666992188,128.7936706542969,128.4502105712891,127.6148986816406,126.5042266845703,124.3550872802734,122.6020278930664,121.9801330566406,120.6660766601562,119.9966125488281,119.2731704711914,118.5835113525391,117.8897247314453,117.2173080444336
130.7507171630859,130.0527191162109,129.7449188232422,128.9168548583984,128.4557495117188,127.2503204345703,125.9887847900391,125.4895553588867,124.8884887695312,124.2901077270508,123.5898818969727,122.7464904785156,122.1669692993164,121.9731597900391,121.7374877929688,121.5432662963867,121.3286743164062,121.0610427856445,121.1550216674805,121.1959609985352,121.5256652832031,121.4207534790039,121.7492370605469,121.8887939453125,121.9591293334961,122.140869140625,122.3559112548828,122.3720245361328,122.4955596923828,122.8230361938477,123.1049041748047,123.5695266723633,123.1949310302734,123.2638244628906,123.3416900634766,123.4101104736328,123.4434356689453,123.8273544311523,124.2756042480469,124.2524719238281,124.3761367797852,124.2747650146484,124.3364410400391,124.441520690918,124.3704986572266,124.5295715332031,124.8024291992188,124.7367248535156,124.4647750854492,124.716423034668,124.6631774902344,124.5987091064453,124.7169418334961,125.3659744262695,125.7270965576172,125.8180084228516,125.6413803100586,125.5278015136719,126.1962509155273,133.7710418701172,134.8681182861328,135.2884521484375,135.5621185302734,135.8134613037109,135.8366546630859,135.7476501464844,135.7163543701172,135.7084197998047,135.8757629394531,135.8860931396484,136.0801849365234,136.1396636962891,136.1341094970703,136.3740081787109,136.416748046875,136.2335815429688,136.2097930908203,136.0304412841797,136.2318115234375,136.5048370361328,136.8935546875,137.0637359619141,136.9175262451172,136.7579803466797,136.6982727050781,136.6717224121094,137.0010375976562,136.9538269042969,137.1276550292969,137.7032165527344,137.1537933349609,137.1178283691406,137.1658477783203,137.3469848632812,137.651123046875,137.2811431884766,137.3368225097656,137.50244140625,138.0700225830078,138.6382141113281,139.1430816650391,139.8309783935547,139.6490631103516,139.2364501953125,138.9872283935547,138.0979614257812,135.934814453125,134.8413391113281,134.6059722900391,134.2717590332031,135.1338348388672,136.5053863525391,136.3851623535156,137.4323425292969,137.6921539306641,137.5088653564453,137.4143981933594,137.6177673339844,137.1328430175781,135.9993286132812,135.7889404296875,136.0477905273438,135.30078125,133.3932800292969,130.2635803222656,128.6768798828125,126.8044204711914,125.1768341064453,123.4625473022461,121.5322799682617,120.1921615600586,119.0650939941406,119.0630645751953,119.5779571533203,119.5196075439453,119.5350952148438,119.7788543701172,119.6929931640625,119.7603759765625,119.6057510375977,119.4813842773438,119.5774459838867,119.883903503418,119.2756729125977,118.8199081420898,118.9639587402344,121.9566116333008,124.2795486450195,126.3161087036133,127.128547668457,127.6045532226562,127.641975402832,127.6436309814453,125.7340087890625,125.4690322875977,125.7293014526367,125.2955169677734,124.3528366088867,122.8359451293945,122.1873779296875,121.6381912231445,120.9230651855469,120.4749908447266,119.7351531982422,119.8014984130859,119.5659027099609,118.1645660400391
129.3373565673828,128.2591857910156,127.6471481323242,126.9275970458984,126.4756317138672,126.3469085693359,125.8332443237305,125.3632583618164,124.5006561279297,123.8854293823242,123.3646240234375,122.7610855102539,122.2686233520508,121.837287902832,121.506217956543,121.2662200927734,121.0321502685547,120.9502868652344,120.9020233154297,120.9792098999023,121.0867385864258,121.2588424682617,121.4505462646484,121.553092956543,121.6700897216797,121.8636932373047,122.0163345336914,122.1606597900391,122.3315963745117,122.4802322387695,122.6623153686523,122.8236236572266,122.9786682128906,123.0011520385742,123.0190124511719,123.1481552124023,123.2428359985352,123.6703186035156,123.9857940673828,124.2190551757812,124.2477645874023,124.2829513549805,124.3244400024414,124.3319931030273,124.3623199462891,124.3930892944336,124.3746948242188,124.3296661376953,124.1645736694336,124.086067199707,124.2491836547852,124.5282974243164,124.8539657592773,125.1408843994141,125.7302322387695,126.0221939086914,126.2911682128906,126.6584243774414,126.8994903564453,128.1229095458984,135.0178527832031,135.769775390625,136.4172973632812,136.4217681884766,136.1540222167969,136.7218017578125,136.3142852783203,135.9626770019531,135.8857116699219,136.1885223388672,136.3628997802734,136.4754028320312,136.6428375244141,136.7930145263672,136.4788665771484,136.1244659423828,136.0745391845703,136.7919311523438,137.0873718261719,137.2291107177734,137.3688201904297,137.2523193359375,137.2998199462891,137.1464385986328,136.9997100830078,136.8726806640625,136.7911682128906,136.7168121337891,136.9226684570312,137.0925598144531,137.0427551269531,137.3195343017578,137.5023193359375,137.0334014892578,137.3068237304688,137.1876373291016,137.408447265625,137.8616790771484,138.0085906982422,138.2297973632812,138.4755554199219,138.5034790039062,139.2729644775391,138.5708770751953,138.3548736572266,138.0927429199219,136.5786437988281,134.2262420654297,133.8477020263672,133.2496490478516,133.6062774658203,134.3978729248047,135.4139709472656,136.0107879638672,135.9241333007812,136.5626678466797,136.4759368896484,136.6176605224609,136.7736968994141,135.6344451904297,135.1137542724609,135.0914306640625,134.5771942138672,131.9150543212891,129.37353515625,126.5642929077148,124.9450302124023,123.923828125,122.2463302612305,121.4016342163086,120.9266815185547,119.0749969482422,118.9186935424805,119.2791061401367,119.3929138183594,119.2015991210938,119.6167373657227,119.6007919311523,119.2941741943359,119.3334426879883,119.3807601928711,119.4062652587891,119.3788681030273,119.1026153564453,118.499267578125,118.4968338012695,120.5119400024414,123.2963104248047,125.5251388549805,124.7696075439453,125.2277297973633,127.5329895019531,128.2376861572266,127.9945907592773,125.4800033569336,124.1345825195312,123.7462310791016,123.4498062133789,123.048942565918,122.6066284179688,122.7908630371094,122.4816970825195,121.5203399658203,120.1006317138672,120.1104736328125,119.796989440918,118.6382751464844
128.3051605224609,127.2173004150391,127.7308883666992,127.3411865234375,126.8169097900391,126.1839828491211,125.6629409790039,124.7448654174805,123.5069732666016,123.248779296875,123.0838088989258,122.6315155029297,122.5384902954102,121.6256866455078,120.2944259643555,120.8022232055664,120.8955841064453,120.9524688720703,121.1496200561523,121.3065643310547,121.406852722168,121.5861206054688,121.509635925293,121.5755844116211,121.8589096069336,121.272590637207,121.3479843139648,121.4288864135742,121.5589370727539,121.5988311767578,121.727165222168,121.4173202514648,121.3036956787109,121.55322265625,123.0069427490234,123.1797256469727,123.2875595092773,123.5889587402344,123.8979187011719,124.196044921875,124.0402145385742,123.9588241577148,124.0020065307617,124.3481979370117,124.4353942871094,124.3462600708008,124.5185012817383,124.0333404541016,123.8803482055664,123.8039932250977,124.4680252075195,124.8820648193359,124.7148132324219,124.2143173217773,124.2672424316406,126.5773849487305,126.8526458740234,126.916015625,126.9514465332031,127.4773864746094,133.8117370605469,136.458984375,136.4762420654297,136.4947967529297,136.6463012695312,136.8655853271484,136.56884765625,136.2145843505859,136.2647705078125,136.4530487060547,136.4898529052734,136.6145172119141,136.7391967773438,137.1162109375,136.39111328125,136.0132751464844,136.0079956054688,136.2794952392578,136.8577117919922,137.0303649902344,137.1379241943359,137.1909790039062,137.0761413574219,136.9675598144531,136.7666320800781,136.6549987792969,136.7131500244141,136.4888916015625,136.6766204833984,136.9052276611328,137.0308532714844,137.0974884033203,137.0199432373047,137.0565948486328,136.9626922607422,137.0855407714844,137.2643432617188,137.5360717773438,137.7940673828125,137.8261566162109,137.7936553955078,137.7611541748047,137.6744842529297,138.0263671875,137.7358551025391,137.4886474609375,136.6201782226562,134.4937133789062,132.9083709716797,132.5794677734375,132.3023986816406,133.9967346191406,134.8111114501953,135.3286590576172,135.5318908691406,136.030029296875,135.9239501953125,135.9132843017578,135.7774047851562,135.1731719970703,134.3327941894531,134.1903533935547,133.5038146972656,131.5979919433594,128.9703216552734,125.5313568115234,123.4571990966797,122.7967681884766,121.4148330688477,120.7714767456055,120.0417251586914,119.2282333374023,118.6526641845703,118.6044998168945,118.8846206665039,119.1862564086914,119.1931762695312,119.0518035888672,119.0669097900391,119.5374755859375,119.2286376953125,119.3310241699219,119.3917007446289,119.1180953979492,118.3320465087891,118.34130859375,118.7327117919922,120.8117370605469,122.3544692993164,123.4383087158203,124.2156829833984,126.5761489868164,126.5662155151367,124.7730407714844,123.5537872314453,123.5562744140625,123.5809020996094,123.3624572753906,124.4326705932617,126.3386917114258,126.5207901000977,125.7742538452148,123.2094116210938,120.4677734375,120.3856582641602,119.8828048706055,118.39892578125
123.9881744384766,123.6084823608398,125.5398712158203,125.6150665283203,123.6713714599609,122.968879699707,122.1180572509766,120.863395690918,120.8698577880859,121.475830078125,121.6969985961914,121.2854309082031,120.7509078979492,119.9236450195312,120.084587097168,120.2520141601562,120.3719940185547,120.4994354248047,120.5553359985352,120.7680511474609,120.8754653930664,120.9982528686523,121.0319671630859,121.0844879150391,121.2159881591797,121.2149963378906,121.3140029907227,121.4090194702148,121.5023422241211,121.4926834106445,121.4341125488281,121.3036270141602,121.2118759155273,121.7244491577148,123.2043838500977,122.4511642456055,122.5011444091797,123.3566131591797,123.7223663330078,124.0816192626953,123.7432098388672,123.4581909179688,123.942253112793,124.125846862793,124.0305633544922,124.0649337768555,124.3059310913086,123.8470306396484,123.6371917724609,123.8134918212891,124.4636840820312,124.4197235107422,124.220329284668,124.8696746826172,126.2792892456055,127.5763778686523,127.7186660766602,127.6104125976562,129.7424163818359,131.0616760253906,136.3263549804688,136.2810668945312,136.1655578613281,136.1185150146484,136.1638336181641,136.7157592773438,136.0977325439453,136.3769989013672,136.6711883544922,136.6319274902344,136.6634063720703,136.7369995117188,136.7758941650391,136.9010467529297,136.3242797851562,135.8820037841797,135.7124633789062,136.0578308105469,136.5830688476562,136.4964752197266,136.3622131347656,136.2034454345703,136.3338012695312,136.3567962646484,136.6516265869141,136.5276184082031,136.1762390136719,136.283203125,136.5054168701172,136.6764373779297,136.5498046875,136.0899200439453,134.4129791259766,136.7877502441406,136.9597320556641,137.2449188232422,137.1219482421875,137.1541748046875,137.1239776611328,137.0940704345703,137.0644073486328,137.0423889160156,137.0265808105469,137.2295379638672,137.1259613037109,136.9731750488281,136.7555847167969,134.8414154052734,132.1419830322266,131.8616333007812,131.3307189941406,131.8197021484375,133.5642700195312,134.2132873535156,134.7017211914062,134.9831695556641,134.9732818603516,134.7527465820312,135.2702026367188,134.9556274414062,133.8641967773438,133.4092102050781,133.3522796630859,132.0671691894531,129.9632415771484,126.5859375,122.9188461303711,121.7322235107422,120.6715469360352,120.3298721313477,120.2947082519531,119.8256530761719,118.4711456298828,118.3804626464844,118.8352813720703,119.0652236938477,119.4144592285156,119.0620956420898,118.9335632324219,119.4365005493164,119.1992492675781,119.2122192382812,119.140007019043,119.1213836669922,118.2773895263672,118.133415222168,118.2284851074219,121.0630035400391,122.0422134399414,122.7008666992188,122.9651412963867,123.4351119995117,123.1425323486328,122.4150009155273,122.9153060913086,123.2534790039062,124.1759262084961,124.148811340332,127.8837509155273,128.3821105957031,127.1742706298828,126.305549621582,124.7241439819336,123.1155242919922,120.9340896606445,119.9354400634766,118.3870620727539
120.6208877563477,120.8262557983398,121.5327377319336,122.2044830322266,121.2180709838867,118.8384246826172,118.8413925170898,118.9764251708984,119.1419372558594,119.3233108520508,119.8719253540039,120.2227096557617,119.6518173217773,119.7803726196289,119.8795547485352,120.0029678344727,120.1313705444336,120.2491607666016,120.3481521606445,120.4911499023438,120.6006546020508,120.7306137084961,120.7883758544922,120.8732833862305,121.1816635131836,121.2124176025391,121.3445205688477,121.4327774047852,121.5246734619141,121.5286026000977,121.4259643554688,121.3297500610352,121.1887512207031,121.3210067749023,122.4697189331055,121.2267456054688,121.2612762451172,123.0960922241211,123.5258560180664,123.7782440185547,123.9476470947266,123.9109344482422,123.9982070922852,123.9919586181641,124.0474166870117,123.9886779785156,123.9930191040039,123.7468643188477,123.5154418945312,123.7094421386719,123.8991851806641,124.0410385131836,124.0629196166992,125.5382614135742,126.9526901245117,128.1437072753906,128.1026763916016,129.6548309326172,133.3227386474609,135.8154144287109,136.2713623046875,136.1545257568359,136.0377044677734,135.9208984375,135.8398284912109,135.7815704345703,135.7093200683594,136.5478057861328,136.7537231445312,136.7143707275391,136.8248443603516,136.9266967773438,136.9936828613281,137.0926361083984,136.2711486816406,135.6991119384766,135.5690002441406,135.5839080810547,135.6276397705078,135.6357116699219,135.4606628417969,135.40087890625,135.4972076416016,135.6923370361328,135.8788604736328,136.1366882324219,136.1682281494141,136.092041015625,136.2869110107422,134.9489288330078,134.4504547119141,133.8502960205078,134.2980041503906,136.2750091552734,136.6382141113281,137.0361633300781,137.1681823730469,137.1699523925781,137.1668243408203,137.1637115478516,137.1605987548828,137.1574859619141,137.1712188720703,137.2915649414062,136.41162109375,136.3446350097656,136.2155151367188,135.0681762695312,132.33837890625,131.1464080810547,130.7741241455078,131.2648162841797,131.7720489501953,132.2445678710938,133.9828643798828,133.8680114746094,134.32177734375,134.6430816650391,134.1349639892578,133.8562927246094,133.4734191894531,132.6686553955078,132.4729919433594,131.9877166748047,130.2228851318359,128.3051452636719,123.9194183349609,121.7024993896484,120.8069229125977,120.1113052368164,120.0425872802734,119.6789703369141,118.3827590942383,118.0899200439453,118.3662414550781,118.6081695556641,118.7315444946289,118.7716903686523,118.5490036010742,118.6070175170898,118.6766052246094,119.1560440063477,118.871711730957,118.8121948242188,118.0557022094727,117.9354705810547,117.9553527832031,120.0785980224609,121.584587097168,121.8727188110352,121.8241195678711,120.7844390869141,121.2988662719727,121.8236389160156,122.5576324462891,124.1668319702148,126.1308898925781,127.9076309204102,128.3524932861328,128.8764801025391,129.0154418945312,127.6631011962891,125.6598358154297,123.4849243164062,123.1371536254883,122.1652603149414,118.8923721313477
117.9005813598633,117.9579391479492,118.849479675293,120.3916320800781,119.2904052734375,118.3780899047852,118.7804794311523,118.9620361328125,119.0942916870117,119.2226638793945,119.3311233520508,119.4277954101562,119.5635070800781,119.6487274169922,119.7884674072266,119.8864440917969,120.04248046875,120.1327590942383,120.2339248657227,120.3557662963867,120.4740295410156,120.6064605712891,120.6765594482422,120.8215103149414,121.1742172241211,121.2268218994141,121.3458786010742,121.4276275634766,121.5109710693359,121.521614074707,121.4380645751953,121.3545379638672,121.2064514160156,121.1825637817383,120.9897155761719,120.1760177612305,120.246711730957,122.8637237548828,123.2790374755859,123.610107421875,123.640251159668,123.8541259765625,123.9895401000977,123.8937530517578,123.768180847168,123.9482116699219,124.002067565918,123.5846710205078,123.2028198242188,121.7345657348633,121.986328125,123.5198364257812,124.4434356689453,125.9695205688477,127.4003372192383,129.1034851074219,128.2804870605469,131.5200500488281,136.1335906982422,136.7588806152344,136.3783569335938,136.2575988769531,136.1979370117188,136.1382446289062,136.0884552001953,135.9951171875,135.8150939941406,136.5327453613281,136.7810211181641,136.9441833496094,136.8373565673828,137.1251525878906,137.3929748535156,137.3432312011719,135.9972534179688,135.6223907470703,135.5280456542969,135.6572113037109,135.4140167236328,134.8423919677734,134.8782043457031,134.9339599609375,134.910888671875,134.9943542480469,135.2949981689453,135.8836059570312,135.9428405761719,135.9063262939453,136.1739349365234,133.9725646972656,133.5072479248047,133.4985656738281,133.8965911865234,136.3144683837891,136.3528289794922,136.7833404541016,137.2615203857422,137.353759765625,137.3477020263672,137.3445739746094,137.3414764404297,137.3393707275391,137.4495391845703,136.1154022216797,136.1433715820312,135.9086456298828,135.7775421142578,134.7176055908203,132.443115234375,130.0615997314453,129.9986114501953,129.5767059326172,130.1775817871094,131.9339599609375,133.23046875,133.3170166015625,133.2760314941406,133.6788330078125,133.6167449951172,133.8428344726562,133.4124755859375,132.2731628417969,131.7310333251953,131.8217010498047,131.0315399169922,129.1773529052734,126.2180557250977,123.1846542358398,121.1406478881836,120.0387649536133,119.998420715332,119.8917007446289,118.5486221313477,117.8931121826172,118.2497787475586,118.8307342529297,118.6957473754883,118.6591644287109,118.4400177001953,118.5279922485352,118.5433197021484,118.4554595947266,118.4646148681641,118.271614074707,117.8210754394531,117.683952331543,117.7285461425781,119.2845993041992,120.6129608154297,119.5376281738281,119.461669921875,120.1391677856445,120.6122207641602,121.6362838745117,124.4694290161133,125.8162994384766,127.6322708129883,128.7246551513672,129.0751037597656,130.5570983886719,130.5313110351562,128.5201416015625,126.6630783081055,123.6152114868164,123.3924179077148,122.012092590332,119.109733581543
117.7331466674805,117.8143081665039,117.879524230957,117.9969787597656,118.6076736450195,118.0560760498047,118.4978713989258,118.8172454833984,118.9457397460938,119.0850982666016,119.2026062011719,119.3206024169922,119.4484710693359,119.5385208129883,119.645133972168,119.7683258056641,119.8763885498047,119.9733657836914,120.0738677978516,120.183708190918,120.2731552124023,120.3946304321289,120.5261001586914,120.623893737793,121.1499786376953,121.2071380615234,121.3260192871094,121.408088684082,121.4984664916992,121.5234527587891,121.4567337036133,121.3563537597656,121.2199020385742,121.1747894287109,121.380500793457,118.9205856323242,118.9970092773438,122.6258773803711,122.9928588867188,123.4334945678711,123.6506500244141,123.9082183837891,123.9028854370117,123.7990951538086,123.6753234863281,123.544792175293,123.4870071411133,123.4788589477539,120.8103103637695,119.9199752807617,120.6987991333008,124.1093673706055,125.6249923706055,127.0988693237305,128.0768585205078,129.3661193847656,129.1320953369141,132.4820709228516,136.3562774658203,136.5324859619141,136.5614013671875,136.5898742675781,136.5970458984375,136.5311889648438,136.4786987304688,135.8012084960938,135.7320861816406,136.6869201660156,136.7921600341797,137.1089019775391,136.7922821044922,136.9272918701172,136.6213073730469,136.3749694824219,136.2266387939453,135.5718688964844,135.4915161132812,135.5089874267578,134.6238708496094,134.5216369628906,134.7094573974609,134.6913604736328,134.7314605712891,134.8332824707031,134.8644561767578,135.2349395751953,135.8674774169922,135.6594696044922,135.9363555908203,133.685546875,133.024169921875,132.87109375,133.4039611816406,135.556640625,135.9759216308594,136.4841918945312,136.9642486572266,137.5342559814453,137.5839385986328,137.5537414550781,137.5506286621094,137.5910949707031,136.6579742431641,136.3363189697266,135.6643524169922,135.2733459472656,135.1619415283203,135.0787658691406,132.8960418701172,129.8314514160156,129.1058349609375,128.75,128.7324523925781,130.7537841796875,131.9979400634766,132.3892822265625,132.1289978027344,132.6452484130859,133.0628051757812,132.9729614257812,132.6858825683594,132.0532531738281,130.9907684326172,130.9140167236328,130.6812133789062,129.0063171386719,127.3835830688477,125.2584075927734,121.9048767089844,120.0396575927734,119.5960693359375,119.5402297973633,118.2856903076172,117.6788330078125,117.9651870727539,118.0961074829102,118.1219635009766,118.2031631469727,118.3038558959961,118.6795654296875,118.6533966064453,118.3887329101562,118.106803894043,118.1709747314453,117.4835510253906,117.3686752319336,117.3457183837891,118.2297821044922,118.0726165771484,118.3613662719727,118.7975234985352,119.6474838256836,120.861328125,122.2171783447266,124.5037002563477,125.8606567382812,127.231575012207,128.8317108154297,130.9323883056641,131.6394653320312,130.9480590820312,129.5964050292969,128.7887420654297,127.0079650878906,125.0339279174805,122.2870178222656,119.7684020996094
117.6608505249023,117.6683959960938,117.6629409790039,117.6964797973633,117.7524948120117,118.0456161499023,118.2676239013672,118.7022399902344,118.8388595581055,118.963996887207,119.1226425170898,119.2156677246094,119.2986068725586,119.383903503418,119.4823913574219,119.5815582275391,119.7264251708984,119.8342514038086,119.9236526489258,120.0330123901367,120.1004409790039,120.2289047241211,120.3629760742188,120.5532073974609,121.1600341796875,121.2042007446289,121.3250274658203,121.4136810302734,121.4823760986328,121.5360260009766,121.4610290527344,121.364501953125,121.2415313720703,121.1573944091797,121.0290908813477,117.6668167114258,117.7197494506836,122.3242492675781,122.6586303710938,123.0665512084961,123.6914443969727,123.9298095703125,123.7857666015625,123.6996383666992,123.5818634033203,123.4165802001953,123.3476409912109,123.2876434326172,121.4028472900391,120.1463623046875,121.1829833984375,125.052848815918,126.8768157958984,128.5323181152344,129.7444458007812,131.5138397216797,132.6323089599609,132.4281768798828,136.3542175292969,136.4313201904297,136.4378967285156,136.4669799804688,136.4960632324219,136.525146484375,136.6088409423828,136.5472564697266,136.3792724609375,136.6473999023438,136.9383544921875,136.4590454101562,136.3728942871094,136.2126312255859,135.9760589599609,136.4070892333984,135.9503784179688,135.40185546875,135.1983489990234,135.2788543701172,134.3604888916016,134.4411773681641,134.4836120605469,134.4580078125,134.5210113525391,134.6405792236328,134.7110900878906,135.0808258056641,135.6514129638672,135.5567321777344,135.6938934326172,134.02978515625,133.7977905273438,134.0615844726562,134.289306640625,135.3235015869141,135.6337585449219,136.0865020751953,136.6740570068359,137.1622924804688,137.7661437988281,137.8324279785156,137.7505645751953,136.9636993408203,136.0914154052734,135.1592407226562,134.0960845947266,134.376220703125,134.6260375976562,134.2229919433594,132.7576599121094,129.5753326416016,128.1490173339844,128.0118255615234,127.6571350097656,129.5052490234375,130.4722137451172,131.5552978515625,131.8309020996094,131.8611450195312,131.9725341796875,132.1700897216797,131.9733734130859,131.6156616210938,130.2240142822266,129.7545776367188,129.4504852294922,128.6359558105469,126.3793411254883,123.9754409790039,121.6592483520508,119.7365341186523,119.3478469848633,119.2538681030273,118.6903610229492,117.4951171875,117.5762481689453,118.0030975341797,118.3012847900391,118.2745742797852,118.2069625854492,118.4185104370117,118.5475540161133,118.7534332275391,118.150505065918,118.0175857543945,117.4397354125977,117.1844482421875,117.2029037475586,117.2702789306641,117.6066360473633,117.8240585327148,119.8089828491211,121.2818145751953,122.6477508544922,123.5959167480469,124.5515899658203,125.6587448120117,127.0052032470703,129.9685363769531,132.0348968505859,132.866943359375,132.6109313964844,130.2334136962891,129.1138153076172,127.4287033081055,125.3179702758789,122.0435409545898,120.4424743652344
117.6586074829102,117.65771484375,117.6427688598633,117.5870971679688,117.6669845581055,117.7368392944336,117.7611999511719,118.5818939208984,118.707389831543,118.8483734130859,118.9872207641602,119.0816268920898,119.1631622314453,119.243766784668,119.3551025390625,119.4528274536133,119.5634155273438,119.6827545166016,119.7624664306641,119.8762054443359,119.9638061523438,120.0950393676758,120.1912078857422,120.3196334838867,121.1454010009766,121.2379531860352,121.3620147705078,121.4404830932617,121.497932434082,121.5485534667969,121.4572143554688,121.3539123535156,121.247673034668,121.2087097167969,121.1617279052734,121.4141387939453,121.033203125,121.9830093383789,122.239387512207,123.0362930297852,123.8092041015625,123.7863235473633,123.6683883666992,123.5972061157227,123.4527587890625,123.3089370727539,123.2840423583984,123.1844253540039,122.8235015869141,122.6218185424805,123.869255065918,125.579719543457,127.1818771362305,129.3300018310547,131.0115356445312,132.5246734619141,133.4284515380859,135.1573486328125,136.6064605712891,136.8394927978516,136.4542236328125,136.3759918212891,136.4078216552734,136.5254669189453,137.06005859375,136.7646179199219,136.7528381347656,136.5258636474609,136.7252197265625,136.2241363525391,136.1347961425781,135.9064178466797,135.6542205810547,135.0301818847656,135.8723449707031,135.2263031005859,134.9854278564453,135.0160675048828,134.3363342285156,134.1314697265625,134.1170959472656,134.2429504394531,134.2407073974609,134.1920318603516,134.446044921875,134.9520874023438,135.3863830566406,135.2933959960938,135.4964294433594,135.3043823242188,134.7278900146484,134.5770263671875,134.8929901123047,135.0458526611328,135.3032531738281,135.5892944335938,136.0050811767578,136.1427154541016,136.0842742919922,136.2942657470703,135.6565704345703,135.7318878173828,135.1393890380859,134.2128753662109,133.8672180175781,134.1243896484375,134.1366424560547,133.9113311767578,132.3732147216797,129.1460723876953,127.2446060180664,127.2548904418945,126.9113998413086,127.1745376586914,128.6285552978516,130.9072875976562,131.4064636230469,131.3820953369141,131.4123840332031,131.3021697998047,131.4067687988281,131.0386199951172,129.8981475830078,128.7795257568359,128.6518707275391,128.1273803710938,126.2327651977539,124.2449493408203,123.0962905883789,120.5867233276367,119.558235168457,119.1801910400391,118.5053634643555,117.4829483032227,117.4725799560547,117.8341522216797,117.8599014282227,117.9468536376953,117.9802017211914,118.0292587280273,118.07421875,118.0986633300781,118.0939865112305,117.928596496582,117.1635665893555,116.9463577270508,116.9492111206055,117.0746688842773,117.4467544555664,118.1963882446289,120.4229125976562,122.6083068847656,123.5307464599609,124.6258850097656,125.4099960327148,127.1583099365234,129.9280700683594,131.9298400878906,132.5392761230469,132.9533233642578,132.9142608642578,132.5555267333984,130.5579528808594,128.0855255126953,124.6880340576172,122.3036727905273,121.0387191772461
117.8046035766602,117.8133850097656,117.7809371948242,117.7579574584961,117.6881942749023,117.6640396118164,117.7556381225586,118.4327850341797,118.5727691650391,118.7433776855469,118.8682556152344,118.9320220947266,119.0232467651367,119.107421875,119.2239761352539,119.3364944458008,119.4260787963867,119.5230560302734,119.6476593017578,119.7214965820312,119.8273086547852,119.9437789916992,120.0251846313477,120.1599655151367,121.1212539672852,121.2236099243164,121.3525314331055,121.4643096923828,121.5244064331055,121.5445785522461,121.4654159545898,121.3419799804688,121.2444305419922,121.2314071655273,121.3513641357422,121.3871154785156,121.5814743041992,121.7925720214844,121.9076614379883,122.0275115966797,122.2124786376953,122.3933334350586,122.5022277832031,122.5200347900391,122.6115570068359,122.7151794433594,122.8739013671875,123.0352630615234,123.2448348999023,124.5343322753906,126.5441589355469,127.9369964599609,129.6222839355469,131.33984375,132.7953338623047,134.1469116210938,136.3411407470703,136.4424591064453,136.7171936035156,137.1405639648438,137.0830078125,136.1345367431641,136.2174987792969,137.0211791992188,137.2425231933594,136.8483428955078,136.6607055664062,136.1519927978516,136.7117614746094,136.142578125,135.9195404052734,135.6844940185547,135.8893432617188,136.4207153320312,135.4864349365234,134.9763793945312,134.8099365234375,134.9681549072266,135.1118621826172,134.2225952148438,134.0361785888672,134.1568603515625,134.2705078125,134.4083557128906,134.9218902587891,135.0524749755859,135.2873992919922,135.1421813964844,135.2053070068359,135.1366882324219,135.6927490234375,135.3741760253906,134.8752593994141,134.7329254150391,134.7072601318359,134.6221618652344,134.7015533447266,134.7015228271484,134.8845062255859,134.3552856445312,134.0426330566406,133.9371795654297,134.2891693115234,133.9567260742188,133.8639678955078,133.6428527832031,133.6573181152344,133.5347747802734,131.5479278564453,128.4513549804688,126.3952941894531,126.3282775878906,126.4214553833008,125.9563980102539,127.4703826904297,129.6749267578125,130.6087188720703,130.4170379638672,130.7211151123047,130.9467163085938,131.259033203125,130.6774139404297,129.3792266845703,127.7585601806641,127.1693878173828,127.2086029052734,126.2857971191406,124.9340133666992,123.6956787109375,122.3023452758789,120.0171813964844,119.4765930175781,118.7111587524414,117.0278625488281,117.1414031982422,117.7095642089844,117.9649047851562,117.8238754272461,117.6926879882812,118.0468215942383,117.8278198242188,117.9817886352539,117.5785217285156,116.8817367553711,116.7031631469727,116.7442626953125,116.9029388427734,117.9658508300781,118.8590621948242,119.0254364013672,119.8711166381836,122.3860092163086,124.7350082397461,125.252311706543,127.9217987060547,130.1033935546875,131.4020385742188,131.7991485595703,132.4329681396484,133.0296936035156,133.2091369628906,133.0782165527344,131.6894378662109,128.7438354492188,124.5522384643555,122.029182434082,121.6684646606445
