114.7086944580078,114.7612762451172,114.8308868408203,114.9004974365234,114.9832611083984,115.066535949707,115.1592559814453,115.2540969848633,115.3275375366211,115.3904876708984,115.4397354125977,115.4766082763672,115.4997024536133,115.5002899169922,115.4996032714844,115.4947509765625,115.4895095825195,115.4802017211914,115.4708938598633,115.4720077514648,115.473762512207,115.4742126464844,115.4743270874023,115.4735641479492,115.4723358154297,115.49658203125,115.5458068847656,115.5896072387695,115.6237182617188,115.6544342041016,115.6726455688477,115.6903839111328,115.7015838623047,115.7127914428711,115.7392349243164,115.7669677734375,115.8099060058594,115.8572311401367,115.892707824707,115.9212341308594,115.9590454101562,116.0067291259766,116.0635299682617,116.1380996704102,116.2058792114258,116.245231628418,116.2837448120117,116.3052825927734,116.3268127441406,116.3288040161133,116.3286590576172,116.3637924194336,116.4103317260742,116.4776763916016,116.5583267211914,116.6609878540039,116.7890472412109,116.9252319335938,117.0787734985352,117.2306060791016,117.3742218017578,117.5170974731445,117.6329803466797,117.7488708496094,117.8000030517578,117.8424072265625,117.8770217895508,117.9088439941406,117.9462966918945,117.9876708984375,117.986701965332,117.9326705932617,117.8739166259766,117.8040618896484,117.7373428344727,117.6880874633789,117.6389312744141,117.6038208007812,117.568717956543,117.5514450073242,117.5370635986328,117.5573425292969,117.591438293457,117.6561660766602,117.7440719604492,117.8339004516602,117.9263610839844,118.0055389404297,118.0501708984375,118.0827102661133,118.03564453125,117.9885787963867,117.9086227416992,117.8282089233398,117.7631225585938,117.7009582519531,117.6208953857422,117.5329742431641,117.4402389526367,117.3435516357422,117.2537002563477,117.173957824707,117.0987014770508,117.0364151000977,116.9765472412109,116.9359512329102,116.8953628540039,116.929328918457,116.965934753418,117.0273361206055,117.0941772460938,117.1703567504883,117.2510452270508,117.3129806518555,117.3582000732422,117.3561019897461,117.2777099609375,117.181510925293,117.027961730957,116.8847579956055,116.8445892333984,116.8044204711914,116.7670593261719,116.7298583984375,116.695442199707,116.6617279052734,116.6428375244141,116.6317901611328,116.6174697875977,116.5999755859375,116.5808715820312,116.5589141845703,116.5441360473633,116.555305480957,116.5654525756836,116.5622253417969,116.5590057373047,116.5429763793945,116.5259094238281,116.5625076293945,116.6143035888672,116.6670684814453,116.7203979492188,116.7742691040039,116.8286972045898,116.8791275024414,116.9218597412109,116.9662017822266,117.0171279907227,117.0685958862305,117.1301651000977,117.1917343139648,117.1750106811523,117.1500473022461,117.1255264282227,117.1011505126953,117.0823593139648,117.0670928955078,117.0631408691406,117.0720825195312,117.0800170898438,117.0858154296875,117.0901794433594,117.0877914428711,117.0848770141602,117.0648422241211,117.0447998046875
114.7730255126953,114.8157424926758,114.8738250732422,114.9319076538086,115.0022811889648,115.0731353759766,115.1574401855469,115.2447662353516,115.3108673095703,115.3665618896484,115.409065246582,115.4396362304688,115.4617233276367,115.4699401855469,115.474853515625,115.4689331054688,115.4619827270508,115.4443817138672,115.4267730712891,115.4295272827148,115.4335250854492,115.4369049072266,115.4401397705078,115.4428482055664,115.4452743530273,115.4700546264648,115.5167465209961,115.5582122802734,115.5903472900391,115.6191558837891,115.6357269287109,115.6520767211914,115.6653289794922,115.678581237793,115.700798034668,115.7237777709961,115.7557144165039,115.7902374267578,115.8184127807617,115.8428726196289,115.8742218017578,115.9129028320312,115.9583435058594,116.016960144043,116.0706634521484,116.1038131713867,116.1363830566406,116.1573791503906,116.1783828735352,116.1863479614258,116.1928863525391,116.2305755615234,116.2783279418945,116.3441925048828,116.421630859375,116.5183410644531,116.6372909545898,116.7670440673828,116.9199447631836,117.0709609985352,117.2129821777344,117.354118347168,117.4632415771484,117.5723571777344,117.6371002197266,117.6958618164062,117.7463531494141,117.7938842773438,117.8402938842773,117.8859176635742,117.8932037353516,117.8524551391602,117.8060836791992,117.746467590332,117.6880416870117,117.6361770629883,117.5844268798828,117.5491180419922,117.513801574707,117.4963912963867,117.4818649291992,117.5004501342773,117.5322189331055,117.5902557373047,117.6681594848633,117.751220703125,117.8412857055664,117.9276504516602,118.0043716430664,118.0654830932617,118.0239181518555,117.9823532104492,117.8976745605469,117.812385559082,117.7456130981445,117.6823501586914,117.5973663330078,117.5028381347656,117.40185546875,117.2955703735352,117.195671081543,117.105224609375,117.0213317871094,116.9563446044922,116.8939437866211,116.8521957397461,116.8104400634766,116.8249435424805,116.8414306640625,116.8853225708008,116.9352188110352,116.9986343383789,117.0685653686523,117.1383590698242,117.2080230712891,117.2249908447266,117.1569976806641,117.069091796875,116.9170913696289,116.7770004272461,116.755485534668,116.7339706420898,116.7089996337891,116.683837890625,116.6566925048828,116.6290512084961,116.6089324951172,116.5927963256836,116.5773239135742,116.5624923706055,116.54833984375,116.5353622436523,116.5269317626953,116.5348968505859,116.5423736572266,116.5433654785156,116.5443572998047,116.5392761230469,116.5336990356445,116.5742645263672,116.6278915405273,116.6822204589844,116.7369537353516,116.7920150756836,116.8474273681641,116.898323059082,116.9405364990234,116.9844665527344,117.0353851318359,117.0868911743164,117.1492691040039,117.2116546630859,117.1925354003906,117.1648330688477,117.1351089477539,117.1047515869141,117.0776138305664,117.0524978637695,117.027961730957,117.0040740966797,116.9837875366211,116.971076965332,116.9616546630859,116.9676132202148,116.9731826782227,116.9663696289062,116.9595565795898
114.8497467041016,114.8880844116211,114.9336090087891,114.9791412353516,115.0317230224609,115.084587097168,115.1564483642578,115.2325744628906,115.2884292602539,115.334358215332,115.3682403564453,115.3912353515625,115.4132690429688,115.433723449707,115.4480361938477,115.4421844482422,115.4344253540039,115.4068298339844,115.3792419433594,115.3843078613281,115.3913726806641,115.3974075317383,115.4031677246094,115.4078750610352,115.4120178222656,115.4368362426758,115.4819259643555,115.5228424072266,115.5563354492188,115.5870819091797,115.6076736450195,115.6279296875,115.6434707641602,115.6590118408203,115.6776733398438,115.6966018676758,115.7186737060547,115.7416534423828,115.7614440917969,115.7793655395508,115.8031234741211,115.8330841064453,115.8686904907227,115.9152984619141,115.9579391479492,115.9839859008789,116.0097198486328,116.029182434082,116.0486450195312,116.0621032714844,116.0749130249023,116.1128387451172,116.1588897705078,116.2197799682617,116.2901611328125,116.3766403198242,116.4816741943359,116.6014022827148,116.7525939941406,116.9017562866211,117.0412368774414,117.1796722412109,117.280143737793,117.380615234375,117.4577560424805,117.5317459106445,117.5971450805664,117.6594543457031,117.7139358520508,117.7629699707031,117.7799530029297,117.7567825317383,117.7273406982422,117.6831130981445,117.6379013061523,117.5872573852539,117.5367431640625,117.5065002441406,117.4762573242188,117.461296081543,117.4488067626953,117.4604721069336,117.4817657470703,117.5261993408203,117.5881423950195,117.6594543457031,117.743522644043,117.8349380493164,117.9454650878906,118.0371932983398,118.0053405761719,117.9734802246094,117.8884658813477,117.8027038574219,117.7360534667969,117.6730346679688,117.5840454101562,117.4836502075195,117.3748626708984,117.2591857910156,117.14892578125,117.0466842651367,116.9548492431641,116.8930206298828,116.8341751098633,116.799072265625,116.7639617919922,116.7557525634766,116.7484817504883,116.7670974731445,116.791389465332,116.8317413330078,116.8798522949219,116.9490356445312,117.0370254516602,117.0708923339844,117.0175094604492,116.9436264038086,116.8037643432617,116.676628112793,116.6761627197266,116.6757049560547,116.6614227294922,116.6463470458984,116.6221618652344,116.595703125,116.5730133056641,116.5523147583008,116.5360260009766,116.5240020751953,116.5148239135742,116.5106353759766,116.5085372924805,116.5140151977539,116.519645690918,116.5272827148438,116.5349197387695,116.5448760986328,116.5550308227539,116.5969696044922,116.6479187011719,116.6998443603516,116.7523345947266,116.8054428100586,116.8591995239258,116.9083480834961,116.9486541748047,116.9907073974609,117.039909362793,117.0897064208984,117.1507034301758,117.2116928100586,117.1956024169922,117.1713943481445,117.1433258056641,117.1140289306641,117.0857467651367,117.0580902099609,117.0129470825195,116.9478607177734,116.8915481567383,116.8537292480469,116.8249435424805,116.8384780883789,116.8517684936523,116.8570022583008,116.8622436523438
114.9545059204102,114.9811706542969,115.0097045898438,115.0382385253906,115.0705795288086,115.1030654907227,115.1607360839844,115.2240447998047,115.2724380493164,115.3135223388672,115.3459091186523,115.3704223632812,115.3955764770508,115.4217681884766,115.4404830932617,115.4346694946289,115.4265060424805,115.3940505981445,115.3615951538086,115.3671264648438,115.3749847412109,115.3727111816406,115.3678512573242,115.3545227050781,115.3366394042969,115.3571395874023,115.4152679443359,115.46728515625,115.508430480957,115.5453567504883,115.566780090332,115.5883407592773,115.6118545532227,115.635368347168,115.6561431884766,115.6766891479492,115.694091796875,115.7105865478516,115.7260818481445,115.7409973144531,115.7596130371094,115.7821731567383,115.8082504272461,115.841194152832,115.8716888427734,115.8919296264648,115.912239074707,115.9338760375977,115.9555130004883,115.9812622070312,116.007453918457,116.0394821166992,116.0733871459961,116.1196212768555,116.1737213134766,116.2437515258789,116.3321533203125,116.438835144043,116.5846405029297,116.7293014526367,116.868537902832,117.0068893432617,117.1131973266602,117.2195053100586,117.2968368530273,117.3702621459961,117.4353103637695,117.4973449707031,117.5544738769531,117.6081848144531,117.636116027832,117.6317367553711,117.6213684082031,117.5968627929688,117.5704040527344,117.5330505371094,117.4958267211914,117.4781112670898,117.4603958129883,117.4524154663086,117.4460220336914,117.4503860473633,117.4590377807617,117.4951477050781,117.5520324707031,117.619987487793,117.702995300293,117.7940979003906,117.9062118530273,118.0002365112305,117.9752807617188,117.950325012207,117.8728942871094,117.7947387695312,117.7316055297852,117.6713256835938,117.5826034545898,117.4813919067383,117.3702163696289,117.2508544921875,117.1348495483398,117.0238189697266,116.9273834228516,116.8730545043945,116.822135925293,116.7983169555664,116.7745056152344,116.7434539794922,116.7121429443359,116.704460144043,116.7019653320312,116.7158432006836,116.7376327514648,116.7898559570312,116.8692245483398,116.9033889770508,116.8646545410156,116.8088150024414,116.6979217529297,116.5982818603516,116.6107635498047,116.6232452392578,116.6140441894531,116.6035995483398,116.578971862793,116.5507965087891,116.5307006835938,116.5148773193359,116.5030364990234,116.4950408935547,116.4895172119141,116.4883422851562,116.4884796142578,116.4933776855469,116.4991607666016,116.5165252685547,116.5338897705078,116.5630569458008,116.5931777954102,116.634651184082,116.6793518066406,116.7246475219727,116.7702941894531,116.8163604736328,116.8628692626953,116.9053268432617,116.9400024414062,116.9760665893555,117.0178375244141,117.0600891113281,117.1113739013672,117.1626510620117,117.1553115844727,117.1418075561523,117.1245040893555,117.1060028076172,117.0874252319336,117.0687866210938,117.0116958618164,116.9107894897461,116.8220901489258,116.759147644043,116.7096710205078,116.723258972168,116.7368698120117,116.7511825561523,116.7654876708984
115.0882873535156,115.0957565307617,115.1026840209961,115.109619140625,115.1191711425781,115.1288299560547,115.1704864501953,115.2193069458008,115.2631149291992,115.3044738769531,115.3427276611328,115.3781814575195,115.4097366333008,115.4349365234375,115.452880859375,115.4470672607422,115.4389419555664,115.4069213867188,115.3749008178711,115.3789825439453,115.3852691650391,115.3633575439453,115.3342437744141,115.282112121582,115.2176284790039,115.2293090820312,115.3156433105469,115.3908309936523,115.4461212158203,115.4936599731445,115.512580871582,115.5327606201172,115.5701293945312,115.6074981689453,115.6362686157227,115.664306640625,115.6824188232422,115.6976699829102,115.7131042480469,115.7286529541016,115.7446746826172,115.7611999511719,115.778076171875,115.7956314086914,115.8128509521484,115.8286361694336,115.8449783325195,115.8726425170898,115.9003067016602,115.9453582763672,115.9923095703125,116.0120697021484,116.0230484008789,116.0445709228516,116.0728378295898,116.1199951171875,116.1889495849609,116.2794494628906,116.4160614013672,116.5534973144531,116.6948547363281,116.8358306884766,116.9629745483398,117.0901184082031,117.1550064086914,117.2115020751953,117.2604064941406,117.3065719604492,117.360725402832,117.4204330444336,117.4605941772461,117.4762725830078,117.487190246582,117.4869155883789,117.4849166870117,117.4733657836914,117.4619140625,117.4644470214844,117.4669799804688,117.4706878662109,117.4745788574219,117.4712448120117,117.4650268554688,117.498291015625,117.5614166259766,117.6346817016602,117.7217636108398,117.8069686889648,117.887321472168,117.9542999267578,117.9333343505859,117.9123687744141,117.8507385253906,117.7885437011719,117.7324447631836,117.6774978637695,117.5934753417969,117.4966583251953,117.3886947631836,117.2715606689453,117.1546020507812,117.0378952026367,116.9403305053711,116.8979949951172,116.8595199584961,116.851806640625,116.8440933227539,116.7900772094727,116.7344207763672,116.6993865966797,116.6688766479492,116.6527481079102,116.6435699462891,116.6618881225586,116.7047348022461,116.7219848632812,116.6979522705078,116.6643218994141,116.5998077392578,116.5427398681641,116.5597839355469,116.5768203735352,116.5668869018555,116.5553970336914,116.5268096923828,116.4939346313477,116.4817810058594,116.4806060791016,116.478645324707,116.4759368896484,116.4727096557617,116.4685668945312,116.4666900634766,116.4729919433594,116.4809951782227,116.5112915039062,116.5415878295898,116.5942611694336,116.6487426757812,116.6878509521484,116.7226028442383,116.7568969726562,116.7909240722656,116.8246765136719,116.8581390380859,116.8887786865234,116.9139785766602,116.9398040771484,116.9682312011719,116.9968795776367,117.0298233032227,117.0627670288086,117.0701141357422,117.0747680664062,117.0776901245117,117.0800552368164,117.0824203491211,117.0847702026367,117.0247116088867,116.8935394287109,116.7762298583984,116.6881637573242,116.6166152954102,116.6224517822266,116.6287307739258,116.6490249633789,116.669319152832
115.208251953125,115.2036285400391,115.192512512207,115.181396484375,115.1689910888672,115.1565475463867,115.1836624145508,115.2196502685547,115.2572021484375,115.2955093383789,115.3344573974609,115.3739700317383,115.407096862793,115.4297790527344,115.4459533691406,115.4408340454102,115.4336242675781,115.4048614501953,115.3760986328125,115.3871994018555,115.4007415771484,115.3755874633789,115.3405532836914,115.2740325927734,115.1906127929688,115.1996994018555,115.299446105957,115.383918762207,115.4411239624023,115.487678527832,115.4949951171875,115.5044174194336,115.5427627563477,115.5811157226562,115.6108627319336,115.6398849487305,115.6585693359375,115.6742782592773,115.6914901733398,115.709587097168,115.7258834838867,115.7402801513672,115.7527694702148,115.7615280151367,115.7708358764648,115.7824020385742,115.7947311401367,115.8225250244141,115.8503112792969,115.9009704589844,115.9541244506836,115.9647064208984,115.961540222168,115.968376159668,115.9815979003906,116.015510559082,116.0733108520508,116.1493988037109,116.2646255493164,116.3822708129883,116.5115051269531,116.6409759521484,116.7786865234375,116.9163970947266,116.9736785888672,117.0201187133789,117.0611114501953,117.1001434326172,117.1576156616211,117.2279205322266,117.2821578979492,117.3162689208984,117.3463745117188,117.3670196533203,117.3861846923828,117.3970718383789,117.4080123901367,117.4279937744141,117.4479751586914,117.4637680053711,117.4788818359375,117.4765701293945,117.4673080444336,117.4998931884766,117.5641403198242,117.6370391845703,117.7217178344727,117.7995300292969,117.8594589233398,117.9092407226562,117.8922958374023,117.8753509521484,117.8258972167969,117.775993347168,117.7267532348633,117.6776428222656,117.5993576049805,117.5082473754883,117.4058227539062,117.2941055297852,117.1826553344727,117.0716247558594,116.9820556640625,116.9544219970703,116.9306793212891,116.9378967285156,116.9451141357422,116.8715896606445,116.7952194213867,116.7343978881836,116.6769943237305,116.6313400268555,116.5913696289062,116.579475402832,116.5926361083984,116.594123840332,116.5767974853516,116.5552597045898,116.520149230957,116.4899520874023,116.5087509155273,116.5275497436523,116.5202331542969,116.5114059448242,116.4862442016602,116.4569854736328,116.4518280029297,116.4594192504883,116.4628219604492,116.4621658325195,116.4588394165039,116.450813293457,116.4472198486328,116.4596786499023,116.473991394043,116.5126419067383,116.5512924194336,116.6142120361328,116.6790924072266,116.7206344604492,116.7555694580078,116.787239074707,116.817024230957,116.8440322875977,116.8681335449219,116.888298034668,116.9008941650391,116.9133148193359,116.9250411987305,116.9367523193359,116.9481201171875,116.9594802856445,116.9724884033203,116.9856643676758,117.0013275146484,117.0177841186523,117.0372085571289,117.0585174560547,117.0136184692383,116.8932952880859,116.7819595336914,116.6895751953125,116.6094665527344,116.5868759155273,116.56591796875,116.5978546142578,116.6297912597656
115.3020477294922,115.2987823486328,115.2763519287109,115.2539215087891,115.2211380004883,115.1879501342773,115.2033538818359,115.2296371459961,115.2577362060547,115.2867202758789,115.316535949707,115.3470993041992,115.3726196289062,115.3898849487305,115.4023895263672,115.3992919921875,115.3946838378906,115.37451171875,115.3543319702148,115.3885192871094,115.426025390625,115.4287033081055,115.4224700927734,115.387809753418,115.337890625,115.3561782836914,115.4413223266602,115.5087814331055,115.5446853637695,115.5683212280273,115.5467681884766,115.5276794433594,115.5426025390625,115.5575256347656,115.5749893188477,115.5926666259766,115.6116638183594,115.6310501098633,115.6535110473633,115.6777801513672,115.6998062133789,115.7194671630859,115.736686706543,115.7491302490234,115.7606811523438,115.7684860229492,115.7767181396484,115.7934494018555,115.8101806640625,115.8404922485352,115.8722839355469,115.8795471191406,115.8788909912109,115.8899917602539,115.9086151123047,115.9475402832031,116.009895324707,116.0749206542969,116.1456527709961,116.2197418212891,116.3098678588867,116.4010391235352,116.5298690795898,116.6586990356445,116.717529296875,116.7669296264648,116.8156204223633,116.8640518188477,116.936767578125,117.0263748168945,117.0981750488281,117.1476745605469,117.1929550170898,117.2282943725586,117.2623443603516,117.2892761230469,117.3162384033203,117.3483581542969,117.3804779052734,117.4091415405273,117.4372482299805,117.4524612426758,117.4625473022461,117.4985809326172,117.5542526245117,117.6160125732422,117.6860656738281,117.7536010742188,117.8146057128906,117.8658599853516,117.8529968261719,117.8401336669922,117.7959899902344,117.7514114379883,117.7087097167969,117.6663589477539,117.5958099365234,117.5128631591797,117.4203948974609,117.3201065063477,117.226448059082,117.1426010131836,117.0783233642578,117.0705184936523,117.0658187866211,117.0857467651367,117.1056747436523,117.0192108154297,116.9289855957031,116.8453521728516,116.7631683349609,116.6889038085938,116.6184692382812,116.583366394043,116.5797729492188,116.5677032470703,116.5419540405273,116.5133209228516,116.4754180908203,116.4423675537109,116.457633972168,116.4728927612305,116.4745330810547,116.4753875732422,116.4676666259766,116.4577941894531,116.4578094482422,116.4630508422852,116.4632263183594,116.45849609375,116.4505310058594,116.4368591308594,116.43212890625,116.4597549438477,116.4881362915039,116.5264739990234,116.564811706543,116.6128540039062,116.6616744995117,116.7147674560547,116.7690658569336,116.8139877319336,116.8534851074219,116.8843078613281,116.9060211181641,116.9182662963867,116.9123306274414,116.9053344726562,116.8940277099609,116.8824691772461,116.8661041259766,116.849739074707,116.8512954711914,116.8547286987305,116.8689880371094,116.8866806030273,116.9158401489258,116.9522323608398,116.9568557739258,116.9252777099609,116.8854370117188,116.8281631469727,116.7650909423828,116.6748580932617,116.5889892578125,116.6432800292969,116.6975784301758
115.3822174072266,115.3785400390625,115.3461456298828,115.3137512207031,115.2641525268555,115.2138977050781,115.2194137573242,115.2374267578125,115.2571716308594,115.2777633666992,115.2991409301758,115.3212432861328,115.3389587402344,115.3495178222656,115.3569869995117,115.3543472290039,115.3507690429688,115.3373947143555,115.3240127563477,115.3799057006836,115.4400329589844,115.4700241088867,115.492317199707,115.4899291992188,115.4742965698242,115.5020065307617,115.5721893310547,115.6233825683594,115.6406784057617,115.6448669433594,115.6007537841797,115.559326171875,115.5548324584961,115.5503387451172,115.5561752319336,115.5628814697266,115.5790328979492,115.597900390625,115.6221694946289,115.6496047973633,115.6749649047852,115.698127746582,115.7188720703125,115.7349014282227,115.7489852905273,115.7549667358398,115.7610397338867,115.76904296875,115.7770462036133,115.7895202636719,115.8024826049805,115.8075332641602,115.8100357055664,115.8246994018555,115.8471374511719,115.8877716064453,115.9493865966797,116.0022277832031,116.0362854003906,116.0743637084961,116.1316833496094,116.1906433105469,116.3085174560547,116.426399230957,116.4842681884766,116.534049987793,116.5869903564453,116.6410751342773,116.7237319946289,116.8262786865234,116.9097518920898,116.9693298339844,117.024528503418,117.0694122314453,117.1131896972656,117.150749206543,117.1883697509766,117.2356796264648,117.2829971313477,117.329475402832,117.3758163452148,117.4121932983398,117.4446105957031,117.4868545532227,117.5365447998047,117.5893707275391,117.6464691162109,117.7047500610352,117.7661209106445,117.8185729980469,117.8123321533203,117.8060913085938,117.7697601318359,117.7330093383789,117.6931533813477,117.652717590332,117.5882949829102,117.5133361816406,117.4317932128906,117.3448333740234,117.2700653076172,117.2133255004883,117.1731033325195,117.1805114746094,117.1900482177734,117.2164993286133,117.2429504394531,117.1455917358398,117.0438461303711,116.9422454833984,116.8406677246094,116.7439956665039,116.6496887207031,116.5936584472656,116.5717697143555,116.5453109741211,116.5114822387695,116.4764404296875,116.4374847412109,116.4031829833984,116.4151916503906,116.4272003173828,116.436279296875,116.445182800293,116.4521331787109,116.4585952758789,116.4619140625,116.4635696411133,116.460090637207,116.4516525268555,116.4399337768555,116.4224548339844,116.4176635742188,116.4588012695312,116.4997940063477,116.538948059082,116.5781021118164,116.6150436401367,116.6518096923828,116.7133026123047,116.7818069458008,116.8355026245117,116.8806457519531,116.9118957519531,116.9285583496094,116.9331207275391,116.9144134521484,116.8938980102539,116.8660125732422,116.8376388549805,116.8002395629883,116.7628402709961,116.7479248046875,116.7353744506836,116.7425994873047,116.756103515625,116.7915420532227,116.8408279418945,116.8877487182617,116.931999206543,116.9543914794922,116.9307250976562,116.886848449707,116.7483367919922,116.6158981323242,116.6792526245117,116.7426071166992
115.4077377319336,115.3965835571289,115.3596267700195,115.3226776123047,115.2705993652344,115.2179412841797,115.220947265625,115.2364349365234,115.2522201538086,115.2681579589844,115.2838973999023,115.2994613647461,115.3086013793945,115.3072357177734,115.3042221069336,115.2957916259766,115.2868957519531,115.2731552124023,115.259407043457,115.3314819335938,115.408805847168,115.4640960693359,115.5137634277344,115.5453186035156,115.5671615600586,115.6051559448242,115.6589736938477,115.6968688964844,115.7063598632812,115.7050018310547,115.6636352539062,115.6245346069336,115.61669921875,115.6088562011719,115.6057205200195,115.6029739379883,115.6035690307617,115.6051254272461,115.6174087524414,115.6359786987305,115.6550521850586,115.6746597290039,115.6941223144531,115.7133026123047,115.731086730957,115.7429962158203,115.7547454833984,115.7633361816406,115.7719345092773,115.7766342163086,115.7809066772461,115.788200378418,115.7964630126953,115.8118362426758,115.8317565917969,115.86083984375,115.900505065918,115.9366760253906,115.9653778076172,115.9977188110352,116.0475006103516,116.0985946655273,116.1972274780273,116.2958602905273,116.3427200317383,116.3825912475586,116.4259796142578,116.4706268310547,116.5420074462891,116.6319961547852,116.7035140991211,116.7518920898438,116.7959518432617,116.8298110961914,116.8625564575195,116.8890533447266,116.9158706665039,116.990608215332,117.0653533935547,117.1494522094727,117.2350616455078,117.3071517944336,117.3738479614258,117.4333724975586,117.4874801635742,117.5402145385742,117.5910949707031,117.6442031860352,117.7031173706055,117.7556533813477,117.7662200927734,117.7767944335938,117.7582855224609,117.739372253418,117.6876068115234,117.6295928955078,117.5648803710938,117.4972076416016,117.4304504394531,117.3644409179688,117.31298828125,117.283088684082,117.2619400024414,117.2660293579102,117.2705688476562,117.2787475585938,117.2869262695312,117.1868515014648,117.0829544067383,116.9827880859375,116.8834381103516,116.7891845703125,116.697395324707,116.6296005249023,116.5832290649414,116.5390930175781,116.4985733032227,116.4598236083984,116.4267807006836,116.3976593017578,116.4075393676758,116.4174118041992,116.4278259277344,116.4382705688477,116.4488067626953,116.4593658447266,116.4585113525391,116.4516143798828,116.4427871704102,116.4320831298828,116.4202041625977,116.4062347412109,116.4056854248047,116.4537048339844,116.5014724731445,116.5459976196289,116.5905151367188,116.6314926147461,116.6721801757812,116.7294998168945,116.7915267944336,116.836067199707,116.870491027832,116.8886184692383,116.8896255493164,116.8874206542969,116.879020690918,116.8686218261719,116.8500137329102,116.8307495117188,116.7991104125977,116.7674713134766,116.7159729003906,116.6623764038086,116.6400375366211,116.6276245117188,116.6555480957031,116.7089080810547,116.7692260742188,116.8374786376953,116.8850326538086,116.8889312744141,116.872917175293,116.7636489868164,116.6582412719727,116.6773300170898,116.696418762207
115.430778503418,115.4120025634766,115.3708190917969,115.3296432495117,115.2757568359375,115.2213745117188,115.2220916748047,115.2351531982422,115.2471084594727,115.2585220336914,115.2687683105469,115.2779541015625,115.2787933349609,115.265998840332,115.2529449462891,115.2390365600586,115.2251281738281,115.2111358642578,115.197151184082,115.2844772338867,115.3779983520508,115.4579467773438,115.5344161987305,115.5996932983398,115.6589508056641,115.7078094482422,115.7464752197266,115.772102355957,115.7744522094727,115.7680587768555,115.7294311523438,115.6926345825195,115.6811294555664,115.6696243286133,115.6574478149414,115.6452178955078,115.6305618286133,115.6152038574219,115.6155242919922,115.6250457763672,115.6376037597656,115.6533889770508,115.6712951660156,115.6933441162109,115.7145156860352,115.7320022583008,115.7490921020508,115.7581558227539,115.767219543457,115.7643508911133,115.7601776123047,115.7695922851562,115.7834014892578,115.799430847168,115.8168792724609,115.8347625732422,115.8531494140625,115.873176574707,115.8966903686523,115.9234466552734,115.9656753540039,116.0089111328125,116.088134765625,116.167366027832,116.2033462524414,116.2334899902344,116.2675323486328,116.3029708862305,116.3632278442383,116.4407577514648,116.5004043579102,116.5376510620117,116.5706329345703,116.5935745239258,116.6154174804688,116.6311187744141,116.6473846435547,116.7488479614258,116.8503036499023,116.971076965332,117.0949783325195,117.2018661499023,117.3019790649414,117.3784713745117,117.4370956420898,117.4899597167969,117.5349960327148,117.5832138061523,117.6397171020508,117.6923370361328,117.7193756103516,117.7464218139648,117.7455291748047,117.7442474365234,117.6814880371094,117.6070556640625,117.5425567626953,117.4824142456055,117.4303436279297,117.3849029541016,117.3560333251953,117.3516998291016,117.3486175537109,117.3491592407227,117.3485488891602,117.3387451171875,117.3289489746094,117.2257995605469,117.1193542480469,117.0204162597656,116.9231262207031,116.8312606811523,116.7420043945312,116.6626968383789,116.5922470092773,116.530876159668,116.4841537475586,116.4422073364258,116.4156494140625,116.3922348022461,116.4001235961914,116.4080123901367,116.4195175170898,116.4312210083008,116.4448165893555,116.4588851928711,116.453727722168,116.4383926391602,116.4245147705078,116.4120330810547,116.4005966186523,116.390998840332,116.3952789306641,116.4497146606445,116.5037994384766,116.5533599853516,116.602912902832,116.6476898193359,116.6920700073242,116.7448043823242,116.7999038696289,116.835075378418,116.8587265014648,116.8639068603516,116.8497009277344,116.8409576416016,116.8427124023438,116.8422775268555,116.8329162597656,116.8227233886719,116.797004699707,116.7712860107422,116.685905456543,116.5942459106445,116.5438766479492,116.5066146850586,116.5260162353516,116.581169128418,116.6527481079102,116.7430419921875,116.8139572143555,116.8440093994141,116.8545989990234,116.7740020751953,116.6951141357422,116.6714782714844,116.6478424072266
115.4101943969727,115.3813095092773,115.3417510986328,115.3021850585938,115.2582473754883,115.2141342163086,115.2163238525391,115.228889465332,115.2391738891602,115.2483367919922,115.2556076049805,115.2611694335938,115.2587203979492,115.2431793212891,115.2279968261719,115.2139739990234,115.2001342773438,115.1881484985352,115.1761703491211,115.262321472168,115.3544769287109,115.4477462768555,115.5412902832031,115.6362228393555,115.7319030761719,115.8019027709961,115.8467407226562,115.8779296875,115.8847579956055,115.8824462890625,115.8464050292969,115.8114013671875,115.7905807495117,115.7697601318359,115.74755859375,115.7252349853516,115.7006301879883,115.6753692626953,115.6641845703125,115.6612548828125,115.6632919311523,115.6706161499023,115.6821670532227,115.7019577026367,115.7212142944336,115.7382354736328,115.7547988891602,115.7621154785156,115.7694320678711,115.7625961303711,115.7542190551758,115.7638549804688,115.7793045043945,115.7950210571289,115.8108901977539,115.8235855102539,115.8326187133789,115.8456115722656,115.8670806884766,115.8908157348633,115.925422668457,115.9606323242188,116.0176239013672,116.0746154785156,116.1021347045898,116.1256790161133,116.1541442871094,116.1843795776367,116.2361831665039,116.3030090332031,116.3522109985352,116.3793334960938,116.4025039672852,116.416374206543,116.4295654296875,116.4390487670898,116.4492263793945,116.565055847168,116.6808929443359,116.8216934204102,116.9665298461914,117.0924072265625,117.2107315063477,117.2986373901367,117.3635330200195,117.4203414916992,117.4661483764648,117.5144958496094,117.569465637207,117.6221313476562,117.6597061157227,117.6972808837891,117.7102813720703,117.7229309082031,117.6654891967773,117.5947341918945,117.5394668579102,117.4910049438477,117.4518585205078,117.4203643798828,117.4011383056641,117.4000701904297,117.3974990844727,117.3905944824219,117.3819427490234,117.3593215942383,117.3367080688477,117.2240524291992,117.1082229614258,117.0068893432617,116.9087371826172,116.8186721801758,116.7325134277344,116.645751953125,116.5584335327148,116.4876022338867,116.443359375,116.4071960449219,116.3970642089844,116.3886260986328,116.3970184326172,116.4054107666016,116.4136657714844,116.4219055175781,116.4293365478516,116.4365615844727,116.4247894287109,116.4029693603516,116.389274597168,116.3834609985352,116.3833160400391,116.3931579589844,116.4123077392578,116.4651031494141,116.5176010131836,116.5662536621094,116.6149063110352,116.659423828125,116.70361328125,116.7445983886719,116.78466796875,116.8068542480469,116.8187026977539,116.8141708374023,116.7924499511719,116.7812423706055,116.7902526855469,116.7973251342773,116.7964630126953,116.7947769165039,116.7777481079102,116.7607116699219,116.6889953613281,116.6115264892578,116.5598907470703,116.516471862793,116.510009765625,116.5268783569336,116.5721740722656,116.6498641967773,116.7126998901367,116.7442245483398,116.7593078613281,116.6974029541016,116.6361694335938,116.5966949462891,116.5572204589844
115.3896026611328,115.3506240844727,115.3126754760742,115.2747268676758,115.2407379150391,115.2068939208984,115.2105560302734,115.2226257324219,115.2312316894531,115.2381439208984,115.2424468994141,115.2443923950195,115.238655090332,115.2203598022461,115.2030410766602,115.1889038085938,115.1751403808594,115.1651611328125,115.1551895141602,115.2401657104492,115.3309555053711,115.4375457763672,115.5481643676758,115.6727523803711,115.8048477172852,115.89599609375,115.9470062255859,115.983757019043,115.9950714111328,115.996826171875,115.9633865356445,115.93017578125,115.9000396728516,115.8699035644531,115.8376693725586,115.8052520751953,115.7706985473633,115.7355346679688,115.7128372192383,115.6974563598633,115.6889801025391,115.6878433227539,115.6930389404297,115.7105712890625,115.727912902832,115.7444763183594,115.7605133056641,115.7660751342773,115.7716445922852,115.7608413696289,115.7482528686523,115.7581100463867,115.7752151489258,115.7906112670898,115.8049087524414,115.8124160766602,115.8120880126953,115.8180465698242,115.8374633789062,115.8581924438477,115.8851623535156,115.912353515625,115.9471130371094,115.9818725585938,116.0009231567383,116.0178604125977,116.0407485961914,116.0657806396484,116.1091461181641,116.1652679443359,116.2040252685547,116.2210235595703,116.2343826293945,116.2391662597656,116.2437210083008,116.2469711303711,116.2510681152344,116.3812713623047,116.511474609375,116.6723022460938,116.8380813598633,116.9829483032227,117.1194839477539,117.2188034057617,117.2899703979492,117.3507232666016,117.3973007202148,117.4457778930664,117.4992065429688,117.5519332885742,117.6000366210938,117.6481399536133,117.6750259399414,117.7016220092773,117.6494827270508,117.582405090332,117.536376953125,117.4996032714844,117.4733734130859,117.4558258056641,117.4462356567383,117.4484405517578,117.4463882446289,117.4320373535156,117.4153289794922,117.3798980712891,117.3444671630859,117.2223129272461,117.0970916748047,116.9933624267578,116.8943405151367,116.8060836791992,116.7230224609375,116.6287994384766,116.5246200561523,116.4443359375,116.4025650024414,116.372184753418,116.3784866333008,116.3850173950195,116.393913269043,116.4028091430664,116.4078140258789,116.41259765625,116.4138565063477,116.4142303466797,116.3958511352539,116.3675384521484,116.3540420532227,116.3548812866211,116.3660354614258,116.3953247070312,116.4293441772461,116.4804992675781,116.5314102172852,116.5791549682617,116.6268997192383,116.6711654663086,116.7151565551758,116.744384765625,116.7694244384766,116.7786331176758,116.778678894043,116.7644424438477,116.7351989746094,116.7215194702148,116.7378005981445,116.7523727416992,116.7600021362305,116.7668228149414,116.7584838867188,116.7501373291016,116.6920852661133,116.6287994384766,116.5759124755859,116.5263214111328,116.4940032958984,116.4725799560547,116.4916000366211,116.5566864013672,116.6114501953125,116.6444396972656,116.6640167236328,116.6208038330078,116.5772171020508,116.5219116210938,116.4666061401367
115.3547973632812,115.3107223510742,115.2779998779297,115.2452697753906,115.2238464355469,115.2028503417969,115.2073440551758,115.2175521850586,115.2239151000977,115.228401184082,115.2302169799805,115.2296295166016,115.2267379760742,115.2200698852539,115.2140274047852,115.2100448608398,115.206298828125,115.2049560546875,115.2036056518555,115.26904296875,115.3385696411133,115.4455718994141,115.562141418457,115.7117691040039,115.8791427612305,116.0015106201172,116.0797653198242,116.1380004882812,116.160514831543,116.1694488525391,116.1283493041992,116.0868835449219,116.0404891967773,115.9940948486328,115.9543304443359,115.9151229858398,115.8839416503906,115.8550720214844,115.8261108398438,115.7970962524414,115.7732925415039,115.7550354003906,115.7422943115234,115.7403411865234,115.7408447265625,115.7516326904297,115.7619400024414,115.7626800537109,115.7634201049805,115.7458190917969,115.7262191772461,115.734619140625,115.7520599365234,115.7698287963867,115.7878036499023,115.8005599975586,115.8073043823242,115.8156433105469,115.8273849487305,115.8395843505859,115.8539886474609,115.8684921264648,115.8866500854492,115.9048080444336,115.9196319580078,115.9339981079102,115.9561920166016,115.981201171875,116.0234527587891,116.0776977539062,116.1143264770508,116.1288757324219,116.1404190063477,116.1448745727539,116.1502075195312,116.1604385375977,116.1713638305664,116.287353515625,116.4033355712891,116.548583984375,116.6985702514648,116.8422546386719,116.9834365844727,117.0940093994141,117.1814346313477,117.2586822509766,117.3220977783203,117.3825454711914,117.4352798461914,117.4877014160156,117.5379867553711,117.5882797241211,117.6221008300781,117.6556930541992,117.624382019043,117.5807418823242,117.5483169555664,117.5208206176758,117.4983520507812,117.4800262451172,117.4636306762695,117.4500961303711,117.4338607788086,117.4098129272461,117.3837966918945,117.3420639038086,117.3003311157227,117.1679763793945,117.0324249267578,116.9255828857422,116.8250427246094,116.7392883300781,116.6606826782227,116.5687637329102,116.4649658203125,116.3883438110352,116.3555450439453,116.335563659668,116.3568572998047,116.3768920898438,116.3844299316406,116.391975402832,116.3917083740234,116.3909912109375,116.384147644043,116.3757705688477,116.3569183349609,116.33251953125,116.3257598876953,116.336067199707,116.3586349487305,116.4027709960938,116.4478912353516,116.4965667724609,116.5451202392578,116.592155456543,116.6391830444336,116.6846313476562,116.7299499511719,116.7516174316406,116.7665786743164,116.7657928466797,116.7558975219727,116.7318420410156,116.6929092407227,116.6722030639648,116.6865463256836,116.6996536254883,116.7076721191406,116.7149887084961,116.7091903686523,116.7033996582031,116.6668090820312,116.6269760131836,116.5833511352539,116.5385208129883,116.491569519043,116.4432907104492,116.4366760253906,116.4775238037109,116.5116195678711,116.5314865112305,116.5410919189453,116.5026473999023,116.4636917114258,116.4082336425781,116.352783203125
115.3185501098633,115.2698822021484,115.2427444458008,115.2156143188477,115.2070159912109,115.1991348266602,115.2043991088867,115.2126007080078,115.216667175293,115.2186965942383,115.2180786132812,115.2150726318359,115.2156448364258,115.222053527832,115.228645324707,115.2358627319336,115.2431411743164,115.251091003418,115.2590484619141,115.3030853271484,115.3493347167969,115.4554443359375,115.5768432617188,115.7510375976562,115.9535751342773,116.1081771850586,116.2158126831055,116.2971420288086,116.33154296875,116.3479614257812,116.2981567382812,116.2474365234375,116.18408203125,116.120719909668,116.0736770629883,116.0280151367188,116.0015487670898,115.9806213378906,115.9459228515625,115.9031524658203,115.8635330200195,115.8272705078125,115.7954330444336,115.7722473144531,115.7544021606445,115.7588806152344,115.7629318237305,115.7585372924805,115.7541351318359,115.7294540405273,115.7025604248047,115.7093276977539,115.7269821166992,115.7473907470703,115.7695693969727,115.7886428833008,115.8041229248047,115.815788269043,115.8192749023438,115.822395324707,115.82373046875,115.8250885009766,115.8272094726562,115.8293380737305,115.8403472900391,115.8525619506836,115.8745498657227,115.9000625610352,115.9419403076172,115.9952087402344,116.0305404663086,116.0434188842773,116.053955078125,116.058967590332,116.0660400390625,116.0845718383789,116.1036376953125,116.2025146484375,116.301399230957,116.4274673461914,116.5579299926758,116.6984024047852,116.8428573608398,116.9646759033203,117.0693588256836,117.1643753051758,117.2462539672852,117.3198699951172,117.3720016479492,117.4240646362305,117.475700378418,117.5273361206055,117.5673904418945,117.6072845458984,117.5983505249023,117.5801467895508,117.561767578125,117.5433197021484,117.523681640625,117.5030822753906,117.4782180786133,117.4470367431641,117.4151382446289,117.3811569213867,117.3456878662109,117.2983169555664,117.2509460449219,117.1083297729492,116.9623413085938,116.8523254394531,116.7501983642578,116.6670227050781,116.5930023193359,116.5043640136719,116.4026947021484,116.3310699462891,116.3078994750977,116.2987823486328,116.3349151611328,116.3683013916016,116.3743057250977,116.3803100585938,116.3745651245117,116.3681411743164,116.3530044555664,116.3356857299805,116.3169784545898,116.2975463867188,116.2981796264648,116.318244934082,116.3522415161133,116.410758972168,116.4665832519531,116.5126953125,116.5588302612305,116.6051635742188,116.651496887207,116.6982650756836,116.7450714111328,116.7595977783203,116.7649917602539,116.7545166015625,116.73486328125,116.7009735107422,116.6521377563477,116.6239395141602,116.6354217529297,116.6461486816406,116.6537322998047,116.6607360839844,116.656867980957,116.6529998779297,116.6386642456055,116.6232223510742,116.5899200439453,116.5509490966797,116.4905090332031,116.4165344238281,116.3843460083008,116.399772644043,116.4119338989258,116.4171981811523,116.4153671264648,116.3802947998047,116.3446502685547,116.2906265258789,116.2366104125977
115.2964324951172,115.2459030151367,115.2205657958984,115.1952285766602,115.1913375854492,115.1882705688477,115.1958770751953,115.2058792114258,115.2101821899414,115.2116928100586,115.2095718383789,115.2041702270508,115.2055511474609,115.2180099487305,115.2301254272461,115.2411270141602,115.2520065307617,115.2615356445312,115.2710647583008,115.2901000976562,115.3097229003906,115.4136428833008,115.5391006469727,115.7396469116211,115.9804840087891,116.1599884033203,116.2793731689453,116.3732299804688,116.4215393066406,116.4526443481445,116.4203491210938,116.3873748779297,116.3450393676758,116.3027114868164,116.2690734863281,116.2361679077148,116.2133636474609,116.1934661865234,116.1415100097656,116.0707626342773,115.9962997436523,115.9178924560547,115.8380889892578,115.7555694580078,115.6919784545898,115.7074890136719,115.7224426269531,115.7259292602539,115.7294158935547,115.6913452148438,115.6487426757812,115.6601791381836,115.689079284668,115.7195663452148,115.7510604858398,115.7728958129883,115.783576965332,115.7924194335938,115.7973327636719,115.8018112182617,115.8042144775391,115.806526184082,115.8056793212891,115.8048324584961,115.8064117431641,115.8083114624023,115.8200378417969,115.8352966308594,115.8703536987305,115.9191741943359,115.9514694213867,115.9630661010742,115.9737930297852,115.9824905395508,115.9952011108398,116.0302429199219,116.0653762817383,116.115478515625,116.1655731201172,116.2385711669922,116.3152694702148,116.4486694335938,116.6046600341797,116.7560653686523,116.9039916992188,117.0431060791016,117.1702117919922,117.2758407592773,117.3256149291992,117.3753509521484,117.4248580932617,117.474365234375,117.5167465209961,117.5590362548828,117.571647644043,117.5786209106445,117.5668869018555,117.5469284057617,117.5174179077148,117.4800720214844,117.4366607666016,117.38427734375,117.3328857421875,117.2843170166016,117.2348709106445,117.1783752441406,117.1218872070312,116.9804229736328,116.8359603881836,116.7322845458984,116.6375579833984,116.5651550292969,116.5035247802734,116.4322052001953,116.3522415161133,116.2980422973633,116.2854156494141,116.2847595214844,116.3226623535156,116.3570022583008,116.3558197021484,116.3546371459961,116.3437423706055,116.3322906494141,116.3139114379883,116.2938003540039,116.2856979370117,116.2839431762695,116.2962799072266,116.3222503662109,116.3579940795898,116.4109268188477,116.4625778198242,116.5096206665039,116.5569534301758,116.6080780029297,116.6592102050781,116.7147750854492,116.7706985473633,116.7870864868164,116.7922744750977,116.7764358520508,116.7484436035156,116.7014389038086,116.6344680786133,116.5908508300781,116.5921325683594,116.5932159423828,116.5934677124023,116.5932846069336,116.5849304199219,116.5765762329102,116.5612182617188,116.5451202392578,116.5152282714844,116.48095703125,116.4301681518555,116.3689651489258,116.3347244262695,116.3312072753906,116.3257446289062,116.3161773681641,116.3021697998047,116.2673492431641,116.2319107055664,116.17626953125,116.1206283569336
115.2787094116211,115.2271728515625,115.2024536132812,115.177734375,115.1760101318359,115.175178527832,115.1856307983398,115.1986083984375,115.2039413452148,115.2055358886719,115.2021942138672,115.1944046020508,115.1957702636719,115.2120819091797,115.2275085449219,115.239990234375,115.2521514892578,115.2608489990234,115.2695541381836,115.2624664306641,115.2544174194336,115.3557510375977,115.4850234985352,115.7124633789062,115.9925842285156,116.194694519043,116.3203430175781,116.4234390258789,116.4862899780273,116.534309387207,116.5276947021484,116.5208892822266,116.5114212036133,116.501953125,116.4881591796875,116.474006652832,116.4545288085938,116.4335098266602,116.360710144043,116.2575531005859,116.1423187255859,116.0142364501953,115.8774719238281,115.7237396240234,115.6058654785156,115.6378326416016,115.6690139770508,115.6844482421875,115.6998748779297,115.6464614868164,115.5855255126953,115.6035919189453,115.6471939086914,115.6900634765625,115.7324752807617,115.7559585571289,115.7576141357422,115.7617263793945,115.7710800170898,115.7801742553711,115.7880401611328,115.7957000732422,115.7959594726562,115.7962188720703,115.7865982055664,115.7756500244141,115.7739715576172,115.775634765625,115.8018493652344,115.8451614379883,115.8738708496094,115.8843002319336,115.8956069946289,115.9089584350586,115.9285278320312,115.9826202392578,116.0363006591797,116.0277481079102,116.0191879272461,116.0285491943359,116.0408096313477,116.1659393310547,116.3360443115234,116.5227508544922,116.7220230102539,116.9134216308594,117.094108581543,117.2376327514648,117.2844924926758,117.3312835693359,117.3775787353516,117.4238739013672,117.4673767089844,117.5108413696289,117.5447387695312,117.5768127441406,117.5694046020508,117.5446548461914,117.5013122558594,117.4427032470703,117.3776092529297,117.3029251098633,117.2308349609375,117.1662292480469,117.1013870239258,117.0346908569336,116.9679946899414,116.8312530517578,116.6920394897461,116.5976715087891,116.5131530761719,116.4540634155273,116.4072647094727,116.3576354980469,116.3054656982422,116.272575378418,116.2707748413086,116.27783203125,116.3134307861328,116.344856262207,116.3347320556641,116.3246078491211,116.3086624145508,116.2923812866211,116.272346496582,116.2513656616211,116.2571105957031,116.2770004272461,116.302375793457,116.3330612182617,116.3675308227539,116.4086532592773,116.4514999389648,116.5005569458008,116.5502243041992,116.6078491210938,116.6654815673828,116.732177734375,116.7996063232422,116.8206481933594,116.8285522460938,116.808708190918,116.7728042602539,116.7116546630859,116.6239929199219,116.5624847412109,116.5512847900391,116.5404663085938,116.5312347412109,116.5217208862305,116.5068817138672,116.4920425415039,116.4684143066406,116.4438552856445,116.4152145385742,116.3852767944336,116.3513565063477,116.3149185180664,116.2859497070312,116.2655029296875,116.2437591552734,116.2192916870117,116.19287109375,116.157341003418,116.1211318969727,116.0629196166992,116.0047149658203
115.2678375244141,115.2128601074219,115.1865539550781,115.1602478027344,115.1586380004883,115.1579895019531,115.1676788330078,115.1796798706055,115.1816177368164,115.1786346435547,115.1690826416016,115.1535949707031,115.1516265869141,115.1717529296875,115.1910171508789,115.2074813842773,115.2236251831055,115.2364883422852,115.2493515014648,115.2602615356445,115.2710494995117,115.3824005126953,115.5194320678711,115.7467269897461,116.0224533081055,116.2211685180664,116.3443984985352,116.448356628418,116.5179443359375,116.5750350952148,116.5860900878906,116.5970687866211,116.6070022583008,116.616943359375,116.6183471679688,116.619026184082,116.6095352172852,116.5970993041992,116.5374374389648,116.450080871582,116.3429107666016,116.2146682739258,116.0686492919922,115.8879776000977,115.7427291870117,115.7455291748047,115.7478637695312,115.7407531738281,115.7336349487305,115.6688537597656,115.597770690918,115.6096801757812,115.6483993530273,115.6860427856445,115.7229995727539,115.7394027709961,115.7320785522461,115.7311019897461,115.7436828613281,115.7564163208008,115.7698440551758,115.7830505371094,115.7878494262695,115.7926483154297,115.7858505249023,115.7774887084961,115.7757873535156,115.7764892578125,115.7969360351562,115.8311309814453,115.8524551391602,115.8576583862305,115.8649749755859,115.8772354125977,115.8972091674805,115.9600982666016,116.0225143432617,116.0134124755859,116.0043182373047,116.0071716308594,116.0119552612305,116.1198425292969,116.2688140869141,116.4423522949219,116.6344680786133,116.8202667236328,116.997444152832,117.1344680786133,117.1670684814453,117.198974609375,117.2263412475586,117.2537002563477,117.287353515625,117.3210906982422,117.3983993530273,117.4839782714844,117.5126113891602,117.5162200927734,117.4913024902344,117.4429473876953,117.377067565918,117.2852478027344,117.1955413818359,117.111946105957,117.0283813476562,116.945068359375,116.8617553710938,116.7387008666992,116.6142425537109,116.5232467651367,116.4395904541016,116.3764572143555,116.3232345581055,116.2852935791016,116.260986328125,116.2485733032227,116.2553405761719,116.2673950195312,116.2965087890625,116.3213424682617,116.3036041259766,116.2858657836914,116.27001953125,116.254280090332,116.2406921386719,116.227653503418,116.2447738647461,116.2778701782227,116.3104095458984,116.3424072265625,116.3739013671875,116.4044952392578,116.4371566772461,116.4772796630859,116.5186767578125,116.576774597168,116.6348724365234,116.7121276855469,116.7909317016602,116.8081130981445,116.8078460693359,116.7804565429688,116.7373886108398,116.6703186035156,116.5780410766602,116.5116424560547,116.495002746582,116.4793853759766,116.4679641723633,116.4564819335938,116.4439315795898,116.4313735961914,116.4015350341797,116.369873046875,116.3384399414062,116.3070907592773,116.2784118652344,116.2514343261719,116.2244491577148,116.1974716186523,116.1714401245117,116.1473922729492,116.124382019043,116.1062164306641,116.0862121582031,116.0070724487305,115.9279327392578
115.2612228393555,115.201286315918,115.1720275878906,115.1427688598633,115.1399993896484,115.1382522583008,115.1449356079102,115.1535034179688,115.149299621582,115.1388473510742,115.1199722290039,115.0934906005859,115.0861282348633,115.1100234985352,115.1334762573242,115.1554641723633,115.1772842407227,115.1974105834961,115.2175369262695,115.2738647460938,115.332405090332,115.4616088867188,115.6088638305664,115.8191909790039,116.0633697509766,116.2425231933594,116.3579254150391,116.4575500488281,116.5290298461914,116.5903167724609,116.6140518188477,116.6375961303711,116.658576965332,116.679557800293,116.6932601928711,116.7063446044922,116.7109680175781,116.7131576538086,116.6877517700195,116.6461868286133,116.5774383544922,116.4797973632812,116.3542022705078,116.1740951538086,116.0182037353516,115.963493347168,115.9089508056641,115.8578491210938,115.8067474365234,115.7330780029297,115.6569366455078,115.6547241210938,115.676399230957,115.697868347168,115.7191925048828,115.7230758666992,115.7068099975586,115.7005157470703,115.7155838012695,115.731330871582,115.7503967285156,115.7692565917969,115.7807312011719,115.7922058105469,115.7969436645508,115.8007736206055,115.807373046875,115.8149566650391,115.83154296875,115.8543853759766,115.865966796875,115.8634262084961,115.8639068603516,115.8714981079102,115.8878784179688,115.9531784057617,116.0182266235352,116.0447158813477,116.0712127685547,116.1030654907227,116.1357955932617,116.2208633422852,116.326789855957,116.4570083618164,116.6056137084961,116.7498092651367,116.8879928588867,116.9909362792969,117.0022048950195,117.0118103027344,117.0104675292969,117.0091171264648,117.0261001586914,117.0433349609375,117.1778182983398,117.3345642089844,117.4189453125,117.4715270996094,117.4850845336914,117.4665832519531,117.4129104614258,117.3071670532227,117.2017593383789,117.0973434448242,116.9929809570312,116.8890609741211,116.7851409912109,116.6813430786133,116.5775527954102,116.4862289428711,116.3976440429688,116.3196563720703,116.2468032836914,116.2143478393555,116.2179260253906,116.225471496582,116.2394104003906,116.2547912597656,116.2748031616211,116.2907562255859,116.266227722168,116.2417068481445,116.2291564941406,116.2172927856445,116.2152099609375,116.2155685424805,116.242546081543,116.2835998535156,116.3196487426758,116.3508453369141,116.378303527832,116.3991546630859,116.4207763671875,116.4451599121094,116.4717025756836,116.5265274047852,116.5813446044922,116.6688003540039,116.758903503418,116.7669219970703,116.7517013549805,116.7145843505859,116.6648025512695,116.596923828125,116.5100326538086,116.4468154907227,116.4291152954102,116.4131164550781,116.4040374755859,116.3951797485352,116.3903579711914,116.3855438232422,116.3507766723633,116.3128509521484,116.276123046875,116.2397766113281,116.2091293334961,116.1820831298828,116.1550369262695,116.1279983520508,116.1051254272461,116.0910339355469,116.0812530517578,116.0916900634766,116.0984573364258,115.9869689941406,115.8754730224609
115.2476959228516,115.1848983764648,115.1547317504883,115.1245727539062,115.1226043701172,115.1217269897461,115.1250991821289,115.1294174194336,115.1200103759766,115.103874206543,115.0785827636719,115.0450286865234,115.032096862793,115.0528793334961,115.0738677978516,115.0955505371094,115.117317199707,115.1399917602539,115.1626663208008,115.2650146484375,115.3722381591797,115.5223541259766,115.6834259033203,115.881965637207,116.1006011962891,116.2615661621094,116.3660049438477,116.4564361572266,116.5218963623047,116.5782775878906,116.6012268066406,116.6244277954102,116.6510696411133,116.6777114868164,116.7004318237305,116.7228240966797,116.7402496337891,116.7562484741211,116.758659362793,116.7531051635742,116.7166442871094,116.6473159790039,116.5444030761719,116.3759765625,116.2236938476562,116.1388702392578,116.0546951293945,115.9834976196289,115.9123077392578,115.8441390991211,115.7762985229492,115.755485534668,115.749870300293,115.745979309082,115.7431945800781,115.7324676513672,115.7125625610352,115.7031860351562,115.7163314819336,115.7304382324219,115.7490768432617,115.7675857543945,115.7811813354492,115.7947692871094,115.8055877685547,115.816032409668,115.8267822265625,115.8376388549805,115.8502960205078,115.8642044067383,115.8688201904297,115.8618011474609,115.8577117919922,115.8605270385742,115.8713836669922,115.927001953125,115.982551574707,116.0285949707031,116.0746383666992,116.1248474121094,116.1757354736328,116.2476196289062,116.3278656005859,116.4295349121094,116.5474014282227,116.661506652832,116.7704696655273,116.8479919433594,116.8437423706055,116.8370895385742,116.8146286010742,116.7921676635742,116.7941284179688,116.7964248657227,116.9590835571289,117.1521835327148,117.2693710327148,117.3531951904297,117.3942794799805,117.4002304077148,117.3604583740234,117.2529907226562,117.1439437866211,117.0303649902344,116.9167251586914,116.8026580810547,116.6885986328125,116.6093597412109,116.531364440918,116.4487838745117,116.3652038574219,116.2832107543945,116.2019729614258,116.1726837158203,116.1897277832031,116.2058792114258,116.220573425293,116.2343978881836,116.2454071044922,116.2528610229492,116.2249526977539,116.1970367431641,116.1875457763672,116.1791152954102,116.1853485107422,116.1952514648438,116.2293701171875,116.2762985229492,116.3161849975586,116.3492584228516,116.3771057128906,116.3957595825195,116.4136047363281,116.4285125732422,116.4456100463867,116.4914779663086,116.537353515625,116.6165313720703,116.6984176635742,116.6964569091797,116.6707534790039,116.6286468505859,116.5770645141602,116.5128631591797,116.4354095458984,116.3786849975586,116.36181640625,116.3468856811523,116.3398513793945,116.3331604003906,116.3329315185547,116.3327026367188,116.2991180419922,116.2620162963867,116.2243423461914,116.1864929199219,116.1523971557617,116.1206665039062,116.0900497436523,116.0606994628906,116.0370864868164,116.0255966186523,116.0199127197266,116.0414199829102,116.0587768554688,115.9422149658203,115.8256607055664
115.2264022827148,115.1630783081055,115.1343231201172,115.1055679321289,115.1066055297852,115.1088027954102,115.108528137207,115.1076965332031,115.094123840332,115.0743103027344,115.0458755493164,115.009651184082,114.9909439086914,115.0008697509766,115.0119323730469,115.0267639160156,115.0420379638672,115.0619659423828,115.0818939208984,115.2309341430664,115.3878784179688,115.5623474121094,115.7412948608398,115.9338302612305,116.1336669921875,116.2780075073242,116.3679580688477,116.4437408447266,116.4942779541016,116.535530090332,116.5425720214844,116.5509185791016,116.5771789550781,116.6034393310547,116.6314926147461,116.6597061157227,116.6884460449219,116.7173461914062,116.7403182983398,116.7598114013672,116.7487335205078,116.7051544189453,116.6274566650391,116.4832000732422,116.3505477905273,116.2664108276367,116.1832046508789,116.118766784668,116.0543212890625,116.0078353881836,115.9633026123047,115.9188537597656,115.8744201660156,115.8348693847656,115.7984390258789,115.7707595825195,115.7531814575195,115.7432098388672,115.7495193481445,115.756706237793,115.7681427001953,115.7795562744141,115.7901306152344,115.8007049560547,115.8114700317383,115.8222503662109,115.8325119018555,115.8425750732422,115.8512344360352,115.8589096069336,115.8597030639648,115.8518753051758,115.8457641601562,115.8436737060547,115.8468246459961,115.8791732788086,115.91162109375,115.9591827392578,116.0067443847656,116.0633392333984,116.1213912963867,116.1909103393555,116.265007019043,116.3546981811523,116.4562072753906,116.5531463623047,116.6438674926758,116.7057113647461,116.6924667358398,116.6763458251953,116.6412963867188,116.6062545776367,116.5950546264648,116.5841903686523,116.7424240112305,116.9327545166016,117.0569686889648,117.1521224975586,117.2084045410156,117.2327499389648,117.2087936401367,117.1133117675781,117.0141830444336,116.9045333862305,116.7945709228516,116.6821060180664,116.5696411132812,116.5209350585938,116.4744873046875,116.4108581542969,116.3434677124023,116.2696228027344,116.1926574707031,116.1639251708984,116.17822265625,116.1902084350586,116.1984710693359,116.2052688598633,116.2073516845703,116.2067413330078,116.1792755126953,116.1518096923828,116.1451034545898,116.1395950317383,116.1505737304688,116.1656723022461,116.2038955688477,116.2543487548828,116.2984466552734,116.3363876342773,116.3696212768555,116.3945465087891,116.4167785644531,116.4292373657227,116.4429779052734,116.4735260009766,116.5040664672852,116.5542144775391,116.60595703125,116.5930862426758,116.5619201660156,116.5201644897461,116.472282409668,116.4168090820312,116.3533554077148,116.3068466186523,116.2929306030273,116.2807006835938,116.2753601074219,116.2703323364258,116.2711563110352,116.2719879150391,116.2464447021484,116.218132019043,116.1844100952148,116.1489715576172,116.1097640991211,116.0681686401367,116.0300369262695,115.9958343505859,115.9671173095703,115.9499664306641,115.9380950927734,115.9509811401367,115.9607467651367,115.8697814941406,115.77880859375
115.2029418945312,115.1418762207031,115.1150054931641,115.088134765625,115.090705871582,115.0944290161133,115.0912475585938,115.0865249633789,115.0696792602539,115.0469055175781,115.0157699584961,114.9770889282227,114.9546890258789,114.9589080810547,114.964599609375,114.9751281738281,114.9862289428711,115.0032043457031,115.0201797485352,115.2065505981445,115.4032897949219,115.5973205566406,115.790657043457,115.9783782958984,116.1630783081055,116.2948303222656,116.3746795654297,116.4393615722656,116.4770126342773,116.5044860839844,116.4944686889648,116.4866027832031,116.5083999633789,116.5302047729492,116.5594177246094,116.5892562866211,116.6253051757812,116.6631469726562,116.7015075683594,116.7401733398438,116.7498321533203,116.7286529541016,116.6742935180664,116.5552139282227,116.4443664550781,116.3679580688477,116.2926254272461,116.2390289306641,116.185432434082,116.1586456298828,116.1347808837891,116.072509765625,115.9978256225586,115.9298553466797,115.8661804199219,115.8237762451172,115.8059387207031,115.7927932739258,115.789680480957,115.7875900268555,115.7903823852539,115.793342590332,115.8024444580078,115.8115463256836,115.8209228515625,115.8303298950195,115.8380661010742,115.8451919555664,115.8484878540039,115.8491058349609,115.8458023071289,115.8375701904297,115.8302307128906,115.8249740600586,115.8225936889648,115.836181640625,115.849967956543,115.8947601318359,115.9395523071289,115.9967880249023,116.0560455322266,116.1216888427734,116.1898727416992,116.26904296875,116.3565063476562,116.43896484375,116.5145874023438,116.5638656616211,116.5446395874023,116.5225524902344,116.4816513061523,116.4407424926758,116.4219589233398,116.4034805297852,116.5474090576172,116.7221755981445,116.8439712524414,116.9424896240234,117.0083160400391,117.0472869873047,117.0392074584961,116.9614715576172,116.8781280517578,116.7786102294922,116.6783676147461,116.5723495483398,116.4663314819336,116.4379043579102,116.412223815918,116.3640594482422,116.3109588623047,116.2476577758789,116.1794357299805,116.1532669067383,116.1646118164062,116.1727142333984,116.1755752563477,116.1766052246094,116.1717224121094,116.1650009155273,116.1399078369141,116.1148223876953,116.1125640869141,116.1116256713867,116.1288528442383,116.1506195068359,116.1912384033203,116.241828918457,116.287223815918,116.3275909423828,116.3640975952148,116.3938293457031,116.4203643798828,116.4353561401367,116.45068359375,116.4704513549805,116.4902267456055,116.5151519775391,116.5404968261719,116.5197372436523,116.4859237670898,116.4454116821289,116.4010314941406,116.3520965576172,116.2983856201172,116.2589645385742,116.2470474243164,116.236213684082,116.2297668457031,116.2234420776367,116.2192687988281,116.2151031494141,116.195442199707,116.1741561889648,116.1443557739258,116.1118545532227,116.0697708129883,116.0216369628906,115.9772415161133,115.9371032714844,115.9025421142578,115.8797454833984,115.8623733520508,115.8703918457031,115.8761444091797,115.8087158203125,115.7412872314453
115.1749649047852,115.1219177246094,115.0979385375977,115.0739593505859,115.0750122070312,115.077033996582,115.0724945068359,115.0664825439453,115.048225402832,115.0239715576172,114.9910659790039,114.9503555297852,114.928596496582,114.9378128051758,114.9475708007812,114.9591064453125,114.9708251953125,114.9844284057617,114.9980392456055,115.2022857666016,115.4182052612305,115.6218490600586,115.8223648071289,116.007698059082,116.1848907470703,116.3124313354492,116.3912963867188,116.4522476196289,116.4812393188477,116.4977416992188,116.4682693481445,116.4413986206055,116.4502639770508,116.4591293334961,116.4808197021484,116.5035934448242,116.5386199951172,116.5771789550781,116.6201934814453,116.6658325195312,116.6865768432617,116.6808547973633,116.6459655761719,116.5541534423828,116.4696273803711,116.4155502319336,116.3624114990234,116.3281478881836,116.2938919067383,116.2826995849609,116.2740249633789,116.2060165405273,116.1188430786133,116.0374908447266,115.9598693847656,115.9073867797852,115.8839111328125,115.8622207641602,115.8443374633789,115.8280181884766,115.8191986083984,115.810905456543,115.8217315673828,115.8325500488281,115.837776184082,115.8422546386719,115.8432540893555,115.8430099487305,115.8381042480469,115.829963684082,115.8219680786133,115.8141708374023,115.8072662353516,115.8024673461914,115.7990341186523,115.8032073974609,115.8075790405273,115.8406829833984,115.8737945556641,115.9197845458984,115.9678497314453,116.0264663696289,116.0892868041992,116.1609039306641,116.2391738891602,116.3126983642578,116.3797454833984,116.4229125976562,116.4039611816406,116.383186340332,116.3503875732422,116.3175888061523,116.3027725219727,116.288200378418,116.397331237793,116.5299530029297,116.6297454833984,116.7151107788086,116.7787246704102,116.8244781494141,116.8324203491211,116.7843933105469,116.7290267944336,116.6524887084961,116.5745010375977,116.4850006103516,116.3954925537109,116.3660736083984,116.3387756347656,116.298828125,116.2560958862305,116.2083129882812,116.1580963134766,116.1386489868164,116.1466522216797,116.1514434814453,116.1510543823242,116.1489181518555,116.1411209106445,116.1323318481445,116.1136322021484,116.0949325561523,116.1005783081055,116.1076354980469,116.1342391967773,116.1657257080078,116.2052001953125,116.2489013671875,116.2895431518555,116.3272247314453,116.3626480102539,116.3941116333008,116.4247970581055,116.4526519775391,116.4798431396484,116.498291015625,116.5167388916016,116.5243606567383,116.5311050415039,116.5087280273438,116.4781112670898,116.4407043457031,116.3993682861328,116.3524398803711,116.2996444702148,116.2608337402344,116.2489395141602,116.2367630004883,116.2234191894531,116.2096481323242,116.1879043579102,116.1661605834961,116.1478958129883,116.129997253418,116.1040573120117,116.0755615234375,116.0352478027344,115.9874725341797,115.9394302368164,115.8910827636719,115.8491592407227,115.8207778930664,115.79931640625,115.8102569580078,115.8194122314453,115.7712783813477,115.7231369018555
115.1476440429688,115.1041030883789,115.0824890136719,115.0608825683594,115.0582275390625,115.0562973022461,115.0509643554688,115.0448684692383,115.0257415771484,115.0002212524414,114.9653167724609,114.9219436645508,114.9027633666992,114.9231262207031,114.9425888061523,114.9591293334961,114.9752731323242,114.9873580932617,114.9994354248047,115.2143020629883,115.4415893554688,115.6498794555664,115.8533172607422,116.0348129272461,116.2045440673828,116.32958984375,116.4108428955078,116.4716110229492,116.4958724975586,116.5054626464844,116.4610366821289,116.4192810058594,116.4142532348633,116.4092330932617,116.4214096069336,116.4350509643555,116.4662780761719,116.5025787353516,116.5476531982422,116.5978851318359,116.6274108886719,116.6349334716797,116.6173706054688,116.5508804321289,116.4906768798828,116.4567642211914,116.4236068725586,116.4057006835938,116.3878021240234,116.3878936767578,116.3899459838867,116.3209228515625,116.2289276123047,116.1410369873047,116.0557556152344,115.995719909668,115.9647979736328,115.9332962036133,115.9005737304688,115.8700408935547,115.8500137329102,115.8308868408203,115.8440475463867,115.8572006225586,115.8581848144531,115.8575210571289,115.8514404296875,115.8434066772461,115.8299865722656,115.8127975463867,115.7996826171875,115.7916564941406,115.784797668457,115.7806701660156,115.7769165039062,115.7752456665039,115.7737274169922,115.7956161499023,115.8175048828125,115.8514862060547,115.8874206542969,115.9374923706055,115.9931945800781,116.0562896728516,116.1249771118164,116.1894607543945,116.2482223510742,116.2857131958008,116.2678909301758,116.2493362426758,116.2260208129883,116.2027053833008,116.1933517456055,116.184196472168,116.2589340209961,116.3495864868164,116.4265365600586,116.4974670410156,116.5571899414062,116.6077041625977,116.629997253418,116.6105117797852,116.582405090332,116.529426574707,116.4743728637695,116.4027862548828,116.3311996459961,116.2979507446289,116.2660522460938,116.2325897216797,116.1987838745117,116.165901184082,116.1334533691406,116.1208801269531,116.1260223388672,116.1280517578125,116.1250305175781,116.120361328125,116.1103515625,116.1001586914062,116.0881958007812,116.0762329101562,116.0899200439453,116.1050872802734,116.1409912109375,116.1820907592773,116.2204284667969,116.2572937011719,116.2928466796875,116.3271331787109,116.3604583740234,116.3920974731445,116.4260025024414,116.4681091308594,116.5086517333984,116.5286483764648,116.5486450195312,116.5432586669922,116.5358123779297,116.5124282836914,116.4845275878906,116.4493789672852,116.410041809082,116.3639373779297,116.3107223510742,116.2715454101562,116.2593841552734,116.2456970214844,116.2257614135742,116.2048873901367,116.1666030883789,116.1283187866211,116.109733581543,116.0932235717773,116.0694427490234,116.043342590332,116.0040054321289,115.9563140869141,115.9041213989258,115.8468170166016,115.7970199584961,115.7630615234375,115.7378158569336,115.7534484863281,115.7676620483398,115.7365036010742,115.7053451538086
115.1233139038086,115.0960540771484,115.074462890625,115.052864074707,115.0364608764648,115.0202560424805,115.016731262207,115.0160598754883,114.9985275268555,114.9727478027344,114.9347915649414,114.8858489990234,114.8781127929688,114.9377288818359,114.9927215576172,115.0325622558594,115.0705795288086,115.0895767211914,115.1085739135742,115.3008575439453,115.5037612915039,115.6939010620117,115.8807907104492,116.0518188476562,116.2143402099609,116.3447647094727,116.4437408447266,116.520637512207,116.5581512451172,116.5793838500977,116.5405883789062,116.5028457641602,116.4795150756836,116.4561920166016,116.4498062133789,116.4448547363281,116.459587097168,116.4800033569336,116.5152359008789,116.5591583251953,116.5869445800781,116.5975646972656,116.5876083374023,116.5374984741211,116.4924926757812,116.4688034057617,116.4455108642578,116.430305480957,116.4151077270508,116.4067459106445,116.3991317749023,116.3506698608398,116.2890014648438,116.2258377075195,116.1617202758789,116.1056900024414,116.0589904785156,116.0119094848633,115.9640045166016,115.919303894043,115.8899612426758,115.8619155883789,115.8802490234375,115.8985824584961,115.8948287963867,115.8880920410156,115.8733139038086,115.8556442260742,115.8321990966797,115.8047332763672,115.7844619750977,115.7732009887695,115.7645721435547,115.7621536254883,115.7614364624023,115.7701950073242,115.7789764404297,115.791748046875,115.8045196533203,115.8230514526367,115.8425140380859,115.8770904541016,115.9176940917969,115.9678115844727,116.0251235961914,116.0800933837891,116.1318893432617,116.1657180786133,116.1528625488281,116.1407089233398,116.133171081543,116.1256332397461,116.1286544799805,116.1318206787109,116.1739654541016,116.2235107421875,116.273796081543,116.3244094848633,116.3725128173828,116.4185485839844,116.4475326538086,116.4512786865234,116.4471664428711,116.4203948974609,116.3913497924805,116.3441162109375,116.2968826293945,116.2467956542969,116.1966171264648,116.1617660522461,116.1302795410156,116.1094131469727,116.0936737060547,116.0886688232422,116.0932388305664,116.094970703125,116.0921325683594,116.0878295898438,116.0788040161133,116.0702667236328,116.0666275024414,116.0629959106445,116.0852966308594,116.1090927124023,116.1540222167969,116.204231262207,116.2414398193359,116.2717666625977,116.3007049560547,116.3282928466797,116.3548278808594,116.379508972168,116.4124298095703,116.4751586914062,116.535888671875,116.570556640625,116.605224609375,116.6065139770508,116.6051025390625,116.5834274291992,116.5560150146484,116.519287109375,116.477180480957,116.4264678955078,116.3667144775391,116.3227005004883,116.3089904785156,116.2930297851562,116.2678756713867,116.2414703369141,116.1913604736328,116.1412506103516,116.1145324707031,116.0902709960938,116.0608520507812,116.0297927856445,115.9877777099609,115.938850402832,115.8802185058594,115.8105316162109,115.7505493164062,115.711051940918,115.6834945678711,115.7118835449219,115.7386779785156,115.7139282226562,115.6891708374023
115.097770690918,115.0862808227539,115.0647430419922,115.0432052612305,115.0135803222656,114.983642578125,114.9817123413086,114.9860534667969,114.9704132080078,114.9449844360352,114.9050903320312,114.8521270751953,114.8559875488281,114.9527053833008,115.041374206543,115.1036987304688,115.1628646850586,115.1893463134766,115.2158203125,115.3858489990234,115.5646667480469,115.7368392944336,115.9073181152344,116.0679092407227,116.2231903076172,116.3583145141602,116.4736709594727,116.5658569335938,116.6167221069336,116.6501083374023,116.6190719604492,116.5874099731445,116.5471649169922,116.5069198608398,116.4827575683594,116.4599609375,116.4582901000977,116.4627151489258,116.4875030517578,116.5242309570312,116.5494613647461,116.5624465942383,116.5595092773438,116.525505065918,116.4953994750977,116.4816055297852,116.4678649902344,116.455207824707,116.4425506591797,116.4259033203125,116.408805847168,116.3805847167969,116.348762512207,116.3100738525391,116.2669830322266,116.2153091430664,116.1537246704102,116.0918731689453,116.0294494628906,115.9711532592773,115.9326477050781,115.8957824707031,115.9182739257812,115.9407653808594,115.9320602416992,115.9191436767578,115.8958206176758,115.8687591552734,115.835693359375,115.798454284668,115.7711944580078,115.7564315795898,115.7456817626953,115.7444000244141,115.7461395263672,115.7646560668945,115.783088684082,115.7872467041016,115.7913970947266,115.7952880859375,115.7991256713867,115.8187255859375,115.844596862793,115.8818969726562,115.9278335571289,115.9732360839844,116.0178985595703,116.0479354858398,116.0399551391602,116.0340042114258,116.0414123535156,116.0488204956055,116.0634231567383,116.0781326293945,116.0891036987305,116.0993728637695,116.1239700317383,116.1548767089844,116.1914596557617,116.2327194213867,116.2676010131836,116.2930374145508,116.3116073608398,116.3103485107422,116.3066711425781,116.2837829589844,116.2609024047852,116.1953811645508,116.1283493041992,116.0925216674805,116.0635452270508,116.0542526245117,116.0544815063477,116.0565414428711,116.0602264404297,116.0614166259766,116.05859375,116.0545196533203,116.0464096069336,116.0394668579102,116.0440444946289,116.0486221313477,116.0792922973633,116.1114730834961,116.1650466918945,116.2239837646484,116.2603378295898,116.2847442626953,116.307487487793,116.3286209106445,116.3484497070312,116.3659744262695,116.3977127075195,116.4808578491211,116.5616226196289,116.6111755371094,116.6607360839844,116.6693649291992,116.6746826171875,116.6545715332031,116.6272583007812,116.5887222290039,116.5436782836914,116.4883880615234,116.4223403930664,116.3736877441406,116.3584976196289,116.3404312133789,116.310546875,116.2791061401367,116.21826171875,116.1574172973633,116.1223602294922,116.0900192260742,116.0544738769531,116.0179138183594,115.9726867675781,115.9219970703125,115.8565902709961,115.7744216918945,115.7041702270508,115.659065246582,115.6291122436523,115.6701278686523,115.709342956543,115.6907348632812,115.672119140625
115.0372619628906,115.0266036987305,115.006591796875,114.9865798950195,114.958740234375,114.9305953979492,114.9238662719727,114.9219360351562,114.9162750244141,114.9087829589844,114.8989410400391,114.8869705200195,114.9067764282227,114.9785079956055,115.0476989746094,115.1085891723633,115.1685256958008,115.2186508178711,115.2687683105469,115.42578125,115.5893402099609,115.74853515625,115.9066009521484,116.0577239990234,116.2051086425781,116.3250274658203,116.4180297851562,116.5016098022461,116.5683822631836,116.6289672851562,116.6667861938477,116.7008590698242,116.6834335327148,116.6660003662109,116.6468276977539,116.6275024414062,116.6119995117188,116.5976028442383,116.5947875976562,116.5987701416016,116.5979690551758,116.5920791625977,116.5793838500977,116.5533981323242,116.5298614501953,116.5165557861328,116.5031814575195,116.488655090332,116.47412109375,116.4535827636719,116.4323959350586,116.4152984619141,116.3995208740234,116.3777465820312,116.3521347045898,116.3147811889648,116.2638702392578,116.2107620239258,116.1529312133789,116.0975646972656,116.0539932250977,116.0115203857422,116.0087356567383,116.0059509277344,115.9860229492188,115.9637832641602,115.936393737793,115.9071426391602,115.8759689331055,115.8434448242188,115.8139114379883,115.7881317138672,115.76513671875,115.7487335205078,115.736213684082,115.7452621459961,115.7543258666992,115.7643051147461,115.7742919921875,115.7867431640625,115.7995910644531,115.81884765625,115.8406677246094,115.8698348999023,115.9045715332031,115.9385528564453,115.9715270996094,115.9936981201172,115.98779296875,115.9824676513672,115.9809188842773,115.9793701171875,115.98291015625,115.9865188598633,116.0072326660156,116.0311965942383,116.0582427978516,116.0866317749023,116.1147384643555,116.1426162719727,116.160514831543,116.1636505126953,116.1669845581055,116.1709136962891,116.1745452880859,116.1758804321289,116.1772155761719,116.1362915039062,116.093879699707,116.0688552856445,116.0476531982422,116.0372619628906,116.0320816040039,116.0265884399414,116.0208129882812,116.0143051147461,116.0066070556641,115.9986343383789,115.9897766113281,115.9826049804688,115.9921875,116.0017623901367,116.0336532592773,116.0668258666992,116.1185150146484,116.1748352050781,116.2181854248047,116.2546691894531,116.2835235595703,116.3050003051758,116.3203887939453,116.3250427246094,116.3499298095703,116.4479751586914,116.5440902709961,116.6147308349609,116.6853713989258,116.7203674316406,116.7524719238281,116.7298049926758,116.6916351318359,116.6443405151367,116.5917663574219,116.5329284667969,116.4674987792969,116.4196243286133,116.405517578125,116.3900527954102,116.3690719604492,116.3471221923828,116.3069610595703,116.2668075561523,116.2176361083984,116.1675109863281,116.1117477416992,116.0541839599609,115.990348815918,115.9225692749023,115.8409118652344,115.7434616088867,115.6604232788086,115.607780456543,115.5731048583984,115.6225433349609,115.6698837280273,115.6497344970703,115.6295852661133
114.9767532348633,114.9669342041016,114.9484481811523,114.9299545288086,114.9039001464844,114.877555847168,114.8660202026367,114.8578109741211,114.8621292114258,114.8725891113281,114.8927917480469,114.9218139648438,114.9575653076172,115.0043106079102,115.0540237426758,115.1134719848633,115.174186706543,115.2479553222656,115.3217163085938,115.4657211303711,115.6140213012695,115.7602233886719,115.9058837890625,116.0475311279297,116.1870193481445,116.291748046875,116.3623962402344,116.4373626708984,116.5200347900391,116.6078262329102,116.7145004272461,116.8143081665039,116.819694519043,116.825080871582,116.8108978271484,116.795051574707,116.7657165527344,116.7324981689453,116.7020797729492,116.6733016967773,116.6464767456055,116.6217193603516,116.5992660522461,116.581298828125,116.564323425293,116.5514984130859,116.5385055541992,116.5220947265625,116.5056838989258,116.4812698364258,116.4559860229492,116.4500122070312,116.4502792358398,116.4454193115234,116.4372863769531,116.4142532348633,116.3740234375,116.3296508789062,116.2764129638672,116.2239685058594,116.1753387451172,116.1272659301758,116.0991973876953,116.0711288452148,116.0399856567383,116.0084228515625,115.9769592285156,115.9455337524414,115.9162445068359,115.8884353637695,115.8566360473633,115.8198318481445,115.7845993041992,115.7530670166016,115.7262802124023,115.7258682250977,115.7255554199219,115.7413711547852,115.7571792602539,115.7781982421875,115.800048828125,115.818977355957,115.8367385864258,115.857780456543,115.8813095092773,115.9038772583008,115.9251556396484,115.9394607543945,115.9356384277344,115.9309310913086,115.9204254150391,115.9099197387695,115.9023895263672,115.894905090332,115.9253616333008,115.9630279541016,115.9925079345703,116.0183944702148,116.0380172729492,116.0525054931641,116.0534286499023,116.0342559814453,116.0223693847656,116.0314712524414,116.0424194335938,116.0679702758789,116.0935211181641,116.0772018432617,116.0594024658203,116.0451889038086,116.0317687988281,116.020263671875,116.0096893310547,115.9966430664062,115.9813995361328,115.9671859741211,115.9546127319336,115.9427490234375,115.9331436157227,115.9257507324219,115.9403305053711,115.9549026489258,115.9880065917969,116.0221786499023,116.0719757080078,116.1256942749023,116.1760330200195,116.2245864868164,116.2595596313477,116.2813873291016,116.2923278808594,116.2841033935547,116.3021392822266,116.4151000976562,116.5265579223633,116.618278503418,116.7100067138672,116.7713623046875,116.8302612304688,116.805046081543,116.7560119628906,116.6999588012695,116.6398544311523,116.5774612426758,116.5126647949219,116.4655685424805,116.4525299072266,116.4396743774414,116.4275970458984,116.4151382446289,116.3956680297852,116.3761901855469,116.3129043579102,116.2450103759766,116.1690139770508,116.090446472168,116.0080108642578,115.9231338500977,115.8252334594727,115.7124938964844,115.6166687011719,115.5565032958984,115.5170974731445,115.5749588012695,115.6304244995117,115.6087341308594,115.5870513916016
114.9294509887695,114.9254531860352,114.9130172729492,114.9005813598633,114.8805694580078,114.8602600097656,114.8501892089844,114.8424072265625,114.8452301025391,114.8532409667969,114.8693923950195,114.8928909301758,114.927001953125,114.9784317016602,115.0323944091797,115.0946273803711,115.1578826904297,115.2317657470703,115.3056564331055,115.4506454467773,115.5999984741211,115.7457962036133,115.8906936645508,116.0297622680664,116.1656951904297,116.2664794921875,116.3328247070312,116.4113540649414,116.5116195678711,116.6235656738281,116.7785263061523,116.9251327514648,116.9567337036133,116.9883270263672,116.9867858886719,116.9824447631836,116.9497680664062,116.9089202880859,116.8537750244141,116.7902526855469,116.733039855957,116.6825332641602,116.6421203613281,116.6213836669922,116.6007308959961,116.5804443359375,116.5601654052734,116.5399322509766,116.5196990966797,116.4996719360352,116.4796600341797,116.4727783203125,116.4701385498047,116.4627304077148,116.452278137207,116.4294738769531,116.3924255371094,116.3509674072266,116.3000717163086,116.2493133544922,116.19921875,116.1494369506836,116.1108703613281,116.0723037719727,116.0520324707031,116.0342330932617,116.017692565918,116.0016021728516,115.9761123657227,115.9440841674805,115.9072341918945,115.8643569946289,115.8234176635742,115.7870330810547,115.7565002441406,115.7584838867188,115.7605133056641,115.7693939208984,115.7782745361328,115.789436340332,115.8009643554688,115.8118286132812,115.8224182128906,115.8365936279297,115.8534851074219,115.8700866699219,115.8862991333008,115.8972015380859,115.894287109375,115.8905792236328,115.8816680908203,115.8727569580078,115.8653182983398,115.8578948974609,115.8775405883789,115.9023208618164,115.9198226928711,115.9341278076172,115.9444427490234,115.9514923095703,115.9568176269531,115.9595947265625,115.9664154052734,115.9848861694336,116.004264831543,116.0308456420898,116.0574188232422,116.0494689941406,116.0402984619141,116.0201950073242,115.9977035522461,115.9682312011719,115.9353866577148,115.9121780395508,115.8975524902344,115.8870315551758,115.8831405639648,115.8816146850586,115.8877410888672,115.8946151733398,115.9088745117188,115.9231414794922,115.9599990844727,115.9981689453125,116.0556259155273,116.117919921875,116.178092956543,116.2371444702148,116.2765884399414,116.2970428466797,116.3016128540039,116.2782363891602,116.2788543701172,116.3662185668945,116.4527130126953,116.52783203125,116.6029510498047,116.6582946777344,116.712043762207,116.7161483764648,116.7061920166016,116.6825637817383,116.6510162353516,116.6073532104492,116.5509567260742,116.5094451904297,116.4965744018555,116.484619140625,116.4764556884766,116.4682846069336,116.4600219726562,116.4517517089844,116.3879165649414,116.3182220458984,116.2372360229492,116.1526565551758,116.0617752075195,115.9669189453125,115.8630676269531,115.7489852905273,115.6492080688477,115.5795974731445,115.5273818969727,115.5566787719727,115.5843887329102,115.5611267089844,115.5378646850586
114.8838272094727,114.8862686157227,114.8804550170898,114.8746490478516,114.8612213134766,114.8474884033203,114.8396682739258,114.8331604003906,114.8330307006836,114.8360214233398,114.8438034057617,114.8559188842773,114.8861541748047,114.9460296630859,115.0072326660156,115.0727767944336,115.138801574707,115.2098388671875,115.2808685302734,115.4286270141602,115.5810775756836,115.7280731201172,115.8736724853516,116.0110244750977,116.1439514160156,116.2422256469727,116.3065414428711,116.3901672363281,116.5082550048828,116.6439590454102,116.844612121582,117.0356292724609,117.093864440918,117.1520919799805,117.164176940918,117.1723480224609,117.1376495361328,117.0905838012695,117.0110855102539,116.9125595092773,116.8244171142578,116.7472915649414,116.6878814697266,116.6630020141602,116.6373825073242,116.6086349487305,116.5801086425781,116.5558013916016,116.531494140625,116.5168914794922,116.5033493041992,116.4940338134766,116.4860916137695,116.4736709594727,116.4583969116211,116.4340515136719,116.3992385864258,116.3599548339844,116.3111190795898,116.2618865966797,116.2107849121094,116.1597900390625,116.1125869750977,116.0653915405273,116.0587844848633,116.0576629638672,116.0584411621094,116.0599060058594,116.038459777832,116.0010681152344,115.9588241577148,115.9104995727539,115.8646774291992,115.8247451782227,115.7917861938477,115.7976760864258,115.8035202026367,115.8038635253906,115.80419921875,115.8031845092773,115.8019409179688,115.8037567138672,115.8067855834961,115.8142547607422,115.825080871582,115.8364028930664,115.848388671875,115.8564529418945,115.8543014526367,115.8516464233398,115.8456573486328,115.8396682739258,115.8337326049805,115.8277893066406,115.8340225219727,115.8425598144531,115.8462600708008,115.8478317260742,115.8487396240234,115.8490982055664,115.8615341186523,115.891845703125,115.9216613769531,115.9500350952148,115.9779968261719,116.0026702880859,116.0273361206055,116.0257034301758,116.0231399536133,115.9950332641602,115.9613342285156,115.9117660522461,115.8545303344727,115.8208160400391,115.8080825805664,115.8027038574219,115.809196472168,115.81982421875,115.8437576293945,115.8667221069336,115.8800048828125,115.8932800292969,115.9342269897461,115.9767608642578,116.0430908203125,116.1153717041016,116.1857452392578,116.2550964355469,116.2987899780273,116.3176574707031,116.3156127929688,116.2767944335938,116.258659362793,116.3153076171875,116.3717498779297,116.4254989624023,116.479248046875,116.5244903564453,116.5690536499023,116.6065063476562,116.6419448852539,116.6559371948242,116.6575164794922,116.6353988647461,116.58837890625,116.5530624389648,116.5402450561523,116.5289764404297,116.5240936279297,116.5195465087891,116.5212936401367,116.5230407714844,116.4603576660156,116.3908920288086,116.3068389892578,116.218147277832,116.1201019287109,116.0161590576172,115.9076690673828,115.7939987182617,115.6913909912109,115.6120910644531,115.5460510253906,115.5420989990234,115.5375213623047,115.5126800537109,115.4878387451172
114.8448715209961,114.8506927490234,114.850227355957,114.8497619628906,114.8433609008789,114.8367233276367,114.8271789550781,114.8169784545898,114.8143768310547,114.8154983520508,114.8225173950195,114.8348541259766,114.8659286499023,114.9276428222656,114.9902114868164,115.0555801391602,115.1212387084961,115.1898727416992,115.2585067749023,115.405647277832,115.5575942993164,115.704833984375,115.8508682250977,115.9891815185547,116.1233444213867,116.2329254150391,116.3184280395508,116.4219818115234,116.557746887207,116.7096405029297,116.9209594726562,117.1208114624023,117.1626968383789,117.20458984375,117.1985397338867,117.1884307861328,117.1374588012695,117.0746994018555,116.9815216064453,116.8704986572266,116.7757720947266,116.6983871459961,116.6460571289062,116.6426162719727,116.6346130371094,116.6074981689453,116.5804901123047,116.5554962158203,116.5304946899414,116.5179061889648,116.5066680908203,116.4954833984375,116.4843063354492,116.4697036743164,116.4528961181641,116.4301223754883,116.4004592895508,116.3658905029297,116.3208236694336,116.2754211425781,116.2284240722656,116.1815948486328,116.1408309936523,116.1000671386719,116.1014404296875,116.1084899902344,116.1185836791992,116.129768371582,116.1198425292969,116.09521484375,116.0619888305664,116.0179824829102,115.9740600585938,115.9303131103516,115.8908157348633,115.8749313354492,115.8590698242188,115.8468780517578,115.8346862792969,115.8255081176758,115.8168182373047,115.8141555786133,115.8138809204102,115.8113403320312,115.8070831298828,115.803092956543,115.7994689941406,115.8004455566406,115.8134002685547,115.8252258300781,115.8296508789062,115.8340835571289,115.8329849243164,115.8318176269531,115.8256301879883,115.8184814453125,115.8161544799805,115.8159332275391,115.8196258544922,115.826530456543,115.8425445556641,115.8720474243164,115.9010238647461,115.9285125732422,115.9555740356445,115.9792327880859,116.0028915405273,115.9949722290039,115.9859237670898,115.947265625,115.902099609375,115.8390350341797,115.7673263549805,115.7353591918945,115.7388610839844,115.7477264404297,115.7652587890625,115.7857666015625,115.8158416748047,115.8444519042969,115.858512878418,115.8725738525391,115.9170837402344,115.9633560180664,116.0360336303711,116.1153259277344,116.1748199462891,116.2238464355469,116.2538681030273,116.265510559082,116.2620391845703,116.2319793701172,116.2157516479492,116.2495269775391,116.2836227416992,116.3218154907227,116.3600158691406,116.4001235961914,116.4403839111328,116.4873275756836,116.5361633300781,116.5678482055664,116.5896072387695,116.5916213989258,116.5728912353516,116.5577697753906,116.5495681762695,116.541145324707,116.5317840576172,116.522216796875,116.5088272094727,116.4954376220703,116.4240646362305,116.3465805053711,116.2638473510742,116.179443359375,116.0989227294922,116.0208435058594,115.9295272827148,115.823112487793,115.7233352661133,115.6375503540039,115.5614624023438,115.5308609008789,115.5002365112305,115.4690628051758,115.4378890991211
114.808235168457,114.8163757324219,114.8208084106445,114.8252410888672,114.8260192871094,114.8266525268555,114.8140106201172,114.7983932495117,114.7934875488281,114.7938232421875,114.8027114868164,114.8193206787109,114.8528747558594,114.9141235351562,114.9760208129883,115.0400085449219,115.1042022705078,115.1705932617188,115.2369842529297,115.3823318481445,115.5325164794922,115.6796722412109,115.8260498046875,115.9662475585938,116.1031265258789,116.2288284301758,116.3435745239258,116.4722137451172,116.625617980957,116.7910690307617,117.0008773803711,117.1971969604492,117.2077941894531,117.2183990478516,117.1831893920898,117.1440963745117,117.071891784668,116.9901428222656,116.8869934082031,116.7712860107422,116.6784591674805,116.6099624633789,116.5737915039062,116.6006774902344,116.6181335449219,116.5961685180664,116.5740737915039,116.549560546875,116.5250473022461,116.5132827758789,116.5029144287109,116.4900436401367,116.4763641357422,116.4605484008789,116.443359375,116.4232406616211,116.3997421264648,116.3707580566406,116.3300628662109,116.2892990112305,116.2481689453125,116.2073745727539,116.1782913208008,116.1492156982422,116.1565780639648,116.1688461303711,116.1854705810547,116.2036514282227,116.2078323364258,116.2022857666016,116.1830825805664,116.1467895507812,116.1071090698242,116.0594787597656,116.0120010375977,115.9654235839844,115.9189758300781,115.8928604125977,115.8667526245117,115.8508224487305,115.8365325927734,115.8309707641602,115.8288803100586,115.8151779174805,115.7926940917969,115.769905090332,115.7467193603516,115.739143371582,115.7721862792969,115.8031616210938,115.8206100463867,115.8380508422852,115.8429641723633,115.8477096557617,115.8294448852539,115.8068161010742,115.801155090332,115.8029556274414,115.8136672973633,115.8317184448242,115.8500823974609,115.8689117431641,115.8887710571289,115.91162109375,115.9344863891602,115.9574508666992,115.9804153442383,115.9618148803711,115.9417419433594,115.8916320800781,115.8349227905273,115.7606506347656,115.6779098510742,115.6519546508789,115.6766662597656,115.7029495239258,115.7317504882812,115.7613525390625,115.7935104370117,115.8241348266602,115.8395919799805,115.8550415039062,115.9029541015625,115.9527282714844,116.0308837890625,116.1161346435547,116.1574401855469,116.1754837036133,116.1856079101562,116.1880798339844,116.1849746704102,116.1720886230469,116.1649475097656,116.178581237793,116.1929931640625,116.2176666259766,116.2423400878906,116.2790298461914,116.3166961669922,116.3648376464844,116.4159393310547,116.4583892822266,116.4958267211914,116.5228729248047,116.5390014648438,116.548942565918,116.5469589233398,116.542121887207,116.5255813598633,116.5079879760742,116.4707260131836,116.4334564208984,116.3499603271484,116.261589050293,116.1817092895508,116.1045227050781,116.0501022338867,116.0100479125977,115.9434814453125,115.8467025756836,115.7517242431641,115.6605529785156,115.5757446289062,115.5207748413086,115.4662857055664,115.4271240234375,115.3879623413086
114.7725524902344,114.7814407348633,114.7888107299805,114.7961807250977,114.8018341064453,114.8074264526367,114.7898101806641,114.7669982910156,114.7624435424805,114.766845703125,114.7859649658203,114.8183898925781,114.8598403930664,114.9160537719727,114.973518371582,115.0350799560547,115.0971755981445,115.1646499633789,115.2321243286133,115.3745803833008,115.5216217041016,115.6659698486328,115.8096237182617,115.9472961425781,116.0817642211914,116.2207107543945,116.3640518188477,116.5135650634766,116.6741104125977,116.8393630981445,117.0219955444336,117.1901779174805,117.1593704223633,117.1285552978516,117.0624313354492,116.9933090209961,116.9081115722656,116.8182907104492,116.7211303710938,116.6196823120117,116.5446548461914,116.4977264404297,116.485710144043,116.5418243408203,116.584342956543,116.570068359375,116.5553894042969,116.53271484375,116.5100479125977,116.4972763061523,116.4855804443359,116.4707565307617,116.4549255371094,116.4385223388672,116.4217529296875,116.4051055908203,116.3885803222656,116.3659744262695,116.3303451538086,116.2950439453125,116.2612991333008,116.2281036376953,116.214729309082,116.2013473510742,116.2146224975586,116.2314910888672,116.2533416748047,116.276985168457,116.2949447631836,116.308952331543,116.3052978515625,116.2795028686523,116.2474060058594,116.2004623413086,116.1500549316406,116.0804061889648,116.0109710693359,115.9727783203125,115.9345932006836,115.9107437133789,115.8892211914062,115.8762741088867,115.8667449951172,115.8409423828125,115.8028335571289,115.7645416259766,115.7260055541992,115.7102279663086,115.7536087036133,115.7942886352539,115.8171997070312,115.8401031494141,115.8470306396484,115.8537368774414,115.833740234375,115.8086700439453,115.803108215332,115.8061141967773,115.8186569213867,115.8390426635742,115.8554916381836,115.8661193847656,115.8785934448242,115.8963775634766,115.9143981933594,115.9342651367188,115.9541244506836,115.9263687133789,115.8969268798828,115.8413619995117,115.7800598144531,115.7038955688477,115.6205520629883,115.5997161865234,115.6346435546875,115.6703491210938,115.7073364257812,115.744743347168,115.7834930419922,115.8206176757812,115.8415298461914,115.8624420166016,115.9130172729492,115.9653015136719,116.0436096191406,116.1284408569336,116.1557006835938,116.1525039672852,116.1475067138672,116.1407775878906,116.1337127685547,116.1260681152344,116.1201019287109,116.1202163696289,116.1213607788086,116.1360321044922,116.1507034301758,116.1827621459961,116.2162322998047,116.2559051513672,116.2973403930664,116.3384170532227,116.3792953491211,116.4196472167969,116.4594421386719,116.483757019043,116.4782867431641,116.4686279296875,116.4417877197266,116.4136352539062,116.3606109619141,116.3075866699219,116.2212448120117,116.1313858032227,116.05615234375,115.9855728149414,115.9445648193359,115.9222259521484,115.8710250854492,115.7869491577148,115.7031478881836,115.6199035644531,115.5417327880859,115.4873580932617,115.4333114624023,115.3900299072266,115.3467559814453
