179.735733,182.727585,181.955276,176.631897,170.893555,166.703430,161.182922,160.469666,160.428177,158.974167,158.200485,159.512650,159.732956,162.300858,167.549713,170.649826,173.978714,174.461121,175.724045,176.796082,178.621857,179.506470,182.750580,185.551437,187.813889,194.009338,195.013718,194.972183,195.014587,194.652328,194.294327,195.411652,194.893799,195.218704,193.000687,190.680908,190.921555,191.003220,190.313080,190.448059,188.677292,186.416885,182.233673,176.687851,170.765884,164.532333,159.195511,158.887329,158.570419,158.563248,158.539246,158.499069,158.583099,158.519760,158.864090,159.025299,159.555038,160.216583,160.734116,161.049286,161.763550,163.288330,165.698166,168.845871,171.625397,172.156418,172.208878,172.261688,172.320221,172.313965,172.281158,172.235596,172.093643,172.082184,171.312576,168.878067,166.759872,164.701736,163.015625,161.139572,160.222656,159.570969,159.244629,158.713287,158.159042,157.729492,156.225983,153.813538,152.723511,152.603745,151.959534,151.666763,151.272995,151.443924,152.137390,151.920334,148.705536,143.774551,142.076904,141.669495,140.958374,141.802887,142.398087,142.864838,143.340912,143.848709,144.347534,144.394073,143.249771,141.948639,141.035324,140.615021,140.139236,139.817673,139.505112,139.452240,138.619217,137.881729,136.803146,135.488922,135.363556,135.102219,134.878082,134.468689,134.097458,133.706497,133.941742,134.591782,136.138535,137.350937,137.842712,138.436081,139.202530,140.710205,142.317688,142.550629,142.613556,142.230377,138.238037,136.202484,134.972031,133.321625,131.975723,131.869080,132.130875,132.418350,133.992126,134.393997,134.594269,134.774704,135.136414,135.064194,135.091583,135.008072,134.068237,132.682159,132.167267,130.891159,130.646729,130.201523,130.482315,130.337784,130.385696,130.853333,130.683594,130.847427,131.022156,130.738846,130.462479,130.413849,130.750214,131.228699,135.347473,136.078156,137.567841,143.672211,146.593155,148.951279,151.289429,151.646286,151.759567,151.675247,151.454819,151.460663,151.046677,150.518051,150.155457,149.907227,148.784119,148.201797,147.985657,146.687256,144.338104,145.565826,147.199768,147.329895,146.391434,144.197296,142.579895,142.683914,142.640213,143.401245,143.852203,142.900375,143.633392,143.455841,143.006561,142.748566,142.661346,142.607742,142.965942,142.774734,143.159958,143.164734,143.075043,141.768738,140.011749,139.938675,139.489746,138.757294,137.985825,137.037155,136.439453,135.536636,134.796204,134.166168,133.447571,132.828918,132.165741,131.634628,131.285446,132.148788,132.395660,131.319901,132.460587,132.267410,132.085953,132.004837,133.257706,134.655090,135.052521,134.671982,134.107010,134.222610,133.044235,131.777359,131.038834,129.699707,128.676529,127.842049,127.144135,126.546402,126.446983,126.494453,126.940361,126.991890,126.942856,127.106163,126.840164,127.030518,127.093941,127.340157,127.342865,127.213226,126.735222,126.102501,126.124519,126.452232,126.703133,126.328300,126.205589,126.104782
182.757629,181.904984,180.588181,174.774139,169.883392,165.027634,161.367981,160.152191,159.596451,158.049988,158.688553,158.974045,159.654175,163.671417,168.697540,170.279785,173.155731,174.134247,174.654388,174.966080,177.533401,178.610596,181.832275,184.615082,185.537949,187.771317,189.171783,193.396042,194.047455,193.715851,193.987289,192.934265,191.033920,189.682068,188.550858,188.842392,189.436508,189.506470,188.743896,188.542252,188.149521,185.998077,180.788330,173.918777,167.084137,162.608261,159.167511,158.628799,158.391159,158.459641,158.368530,158.014694,158.003708,158.298859,158.498459,158.985214,158.928207,159.620926,160.804489,161.274414,161.604462,163.859467,166.351593,168.982162,171.378784,171.786011,172.067139,172.161621,172.148071,172.166626,172.144730,172.150085,172.157486,172.044968,171.104950,169.081024,167.000214,164.795883,163.240585,162.229813,161.016434,160.184296,159.072128,158.263443,157.995514,157.444046,156.911972,156.492249,155.205887,153.483459,152.319061,152.185440,152.359970,152.323532,152.334396,152.037354,149.251022,145.521210,141.772293,141.237030,140.681625,140.358810,141.165100,141.603638,141.888596,142.152527,142.742813,143.154419,142.618347,141.979370,141.141068,140.392639,139.845642,139.463806,139.059250,139.217041,139.201050,138.105743,136.808258,135.331024,134.965591,134.713150,134.402954,134.133804,133.727936,133.254059,133.557739,134.133316,135.567688,137.029114,137.644104,137.843216,138.677032,139.871674,142.448273,142.671021,142.558548,140.842926,137.608734,135.195557,133.773453,132.390045,132.003265,132.286957,132.292313,132.549332,132.598343,134.140121,134.338486,134.358276,134.624802,134.994751,135.099747,135.019791,133.895065,132.572021,131.721588,130.507034,130.438385,129.913651,130.299088,130.109558,130.498627,130.631622,130.688553,130.883026,130.780869,130.670502,130.451935,130.324112,130.637344,131.038803,134.512100,136.500092,137.129761,142.746384,145.756699,147.910645,150.765366,151.566559,151.621826,151.541580,151.494339,151.240036,150.528030,149.877029,149.374878,148.970581,148.162323,147.761566,146.730942,143.968414,142.937744,143.043762,143.657440,144.988266,145.496582,144.005768,142.685974,142.555573,142.649200,142.773117,142.909332,142.770020,142.828262,142.765976,142.670914,142.750671,142.730011,142.204056,142.024551,142.623215,142.778519,142.730240,142.714966,141.288971,140.545425,140.505066,140.509949,139.788879,138.094299,136.854965,136.712265,135.731384,134.574005,134.013229,133.564178,132.629044,131.855698,131.042923,130.544479,130.034836,129.771011,129.765976,130.614029,130.902328,130.644836,131.306732,132.295013,133.928848,134.311401,132.860764,132.961060,133.993729,133.179276,132.981812,131.210098,130.263962,129.315613,128.653549,127.265831,127.043648,126.221962,126.182365,126.645363,126.902100,126.808746,127.005707,126.876556,126.756630,127.030739,126.991592,127.070595,126.758919,126.404190,125.841499,125.855148,126.020111,126.182716,126.105621,126.208183,126.133965
182.267761,180.595642,178.808670,172.942337,168.707748,163.719101,160.591858,161.104996,159.566254,157.720169,158.367371,158.813858,159.043015,164.260300,168.829468,169.897232,172.432587,174.073883,174.762283,175.044067,176.106567,177.634537,180.795288,183.816193,185.435776,185.689056,187.237991,190.655045,191.342529,191.611938,191.394516,188.670670,186.814468,187.098511,187.551178,185.970520,187.619217,187.241959,187.716843,187.651367,185.824875,181.167389,176.660355,173.603531,168.242493,163.407211,159.365402,158.529465,158.292160,157.630341,157.651306,157.236603,157.741165,157.862793,158.398483,157.631165,157.794571,158.771973,160.517548,161.814835,162.211121,162.750793,164.857193,167.568405,170.121460,170.707260,171.828995,172.036072,172.137024,172.096466,172.078415,172.099640,172.081589,172.029327,170.643509,168.825470,166.825027,165.148376,164.017731,163.135468,162.342148,161.390884,160.431198,159.207733,157.911041,157.017593,156.686020,156.149811,155.693954,154.990616,153.752884,152.838120,152.470535,152.265060,152.145981,152.010971,150.274887,146.240173,142.608932,141.201111,140.834976,138.275269,139.102539,139.129303,139.045914,139.582687,139.757080,139.726517,139.174591,139.337891,139.199844,139.433609,139.655975,139.274231,139.150269,139.362473,139.699524,138.153275,136.809448,135.444153,134.620911,134.192993,133.969254,133.637650,133.203766,132.738464,132.186035,133.461411,133.946823,134.423569,136.099655,137.037094,137.478470,138.728500,140.757416,142.063919,141.928589,139.558136,136.833954,135.036804,133.061417,132.416306,132.278610,131.849396,131.920273,132.174301,132.064804,132.162567,133.547882,134.105621,134.532867,135.054001,135.140320,134.868683,133.553329,132.550644,130.967422,130.023880,130.155426,129.901764,129.890610,130.020721,130.141464,130.123886,130.044678,130.073471,130.268158,130.181686,130.510818,130.554657,130.629318,130.945831,133.723282,136.764969,137.138367,140.668655,144.611618,146.479324,148.639542,150.194870,150.988892,151.009491,150.950989,150.530045,149.965363,149.168304,148.555405,147.975586,147.285980,147.216599,145.924377,143.272675,142.906952,142.950958,142.986313,143.049789,142.929825,142.918320,142.750275,142.601242,142.677872,142.858536,142.679382,142.730820,142.775299,142.840179,142.833618,142.783340,142.665009,142.164505,142.413727,142.503876,142.376602,142.224106,142.360916,141.321548,141.202911,141.225647,140.959930,140.559433,139.150925,136.735367,135.740036,135.752701,134.184723,133.411865,132.991425,132.300964,131.611099,131.233185,130.326080,129.576248,129.020325,128.564621,128.349182,128.383850,129.135132,129.957642,130.863770,132.202652,132.768845,130.929703,130.732590,131.303680,131.729660,131.685440,131.159271,130.296951,129.629456,128.200989,126.798409,126.701111,126.279839,125.908310,125.967926,126.801765,126.980705,126.874954,126.811882,126.551323,126.979515,126.908783,126.809883,126.886597,126.397797,125.683128,125.691963,126.197197,126.031265,125.993835,125.888939,125.867142
181.117996,178.164291,176.049469,171.160446,167.068268,162.911407,160.450012,160.209198,159.537842,157.398224,158.365082,158.866837,160.408295,166.038788,169.261826,169.851990,171.874695,172.602173,173.380890,174.284348,175.791962,177.024902,178.737579,183.085068,185.314926,186.375519,189.874619,190.388901,190.384918,190.564987,189.545639,185.876099,185.915344,185.572510,184.802628,184.583359,184.900223,184.475052,184.931610,184.810120,179.535492,175.201233,171.524170,168.802185,167.638306,164.465851,159.526108,158.082428,157.408188,157.029846,156.955582,157.162399,157.339218,157.612671,157.094727,157.164734,157.222717,157.669983,159.583755,162.008896,163.183609,163.438339,163.820480,165.957031,168.521255,169.198029,171.211777,171.831360,172.033722,172.017258,172.005768,172.032272,172.018082,171.936737,170.047638,168.357361,166.753494,165.731308,164.691528,164.005234,163.325607,162.545593,161.603561,160.646194,159.405533,157.997452,156.604141,155.705032,155.307419,154.866486,154.029190,153.703079,152.520386,152.371796,152.139801,151.925476,150.433044,146.726151,143.903870,141.176407,141.074966,140.207840,139.145844,138.272385,137.766571,136.982330,136.778748,136.522171,136.001343,135.861328,135.694183,136.218033,137.598419,138.679703,138.888519,138.669769,138.833008,138.829651,137.633194,136.470703,135.611435,134.240204,133.371735,133.350677,133.020432,132.160294,132.558334,132.853683,133.207901,133.936234,134.173874,135.051147,136.534378,137.569901,138.388351,139.034607,139.233276,138.037018,136.016785,135.338898,132.691467,132.234329,130.303360,129.679077,129.441269,130.270248,131.609802,131.939819,132.493149,133.897369,134.013290,133.421997,133.160110,132.566666,132.479980,132.284439,130.292023,129.907654,129.844620,129.764694,129.782761,129.932358,130.066696,130.188217,129.832611,129.322708,128.831161,127.759926,128.199890,130.024734,130.371750,130.773636,132.713242,136.955826,137.614853,137.970291,142.609314,145.002289,146.946457,148.701065,149.685730,149.992218,149.822128,149.672546,149.258713,148.442688,147.676788,147.153564,146.689621,146.405823,143.710236,142.882172,142.923538,143.070862,143.203033,143.348984,143.149429,142.841248,142.813766,142.562424,142.527649,142.673950,142.633743,142.663544,142.726074,142.790909,142.812424,142.836411,142.801651,142.585770,142.472672,142.229202,142.022476,142.029648,142.525757,141.883957,141.759277,141.238342,139.989487,140.150391,138.891525,136.991119,135.880768,134.867294,134.628479,133.412048,132.413788,132.014709,131.685745,131.540268,131.191559,130.187485,128.960617,128.171356,127.630493,127.406464,127.253769,127.311478,128.620712,128.930771,130.104843,129.943710,129.888489,130.293137,131.120316,130.883286,129.398117,127.883568,128.236237,126.909134,126.996956,126.747047,126.553802,125.724037,125.661331,125.956230,126.305511,126.492905,126.593842,126.524666,126.710175,126.836746,126.612961,126.640709,126.305061,125.738350,125.507660,125.701424,125.815002,125.754158,125.559502,125.479454
179.269012,178.744751,174.989044,170.010208,165.797119,160.957748,160.374268,160.239594,158.710220,157.120544,157.480850,160.555557,164.356628,166.022385,167.408890,168.358551,169.390869,171.684479,172.919952,173.643646,175.882751,176.683411,177.582062,180.528458,182.224304,185.602829,188.211105,189.168182,189.717194,188.266678,185.722855,185.105057,184.645798,183.196167,180.965057,181.330093,182.120895,182.799759,183.513901,180.066132,174.243271,170.813492,169.317963,169.130188,167.111664,164.988953,158.751694,157.212677,156.442505,156.401535,156.548645,157.066742,157.190536,156.711044,157.240967,157.415924,156.859329,157.093781,158.680740,161.273651,163.283142,164.081543,164.675293,165.082748,166.983139,168.207840,169.229111,171.520676,171.851395,171.922012,172.011749,171.958084,172.033997,171.192719,169.328964,167.597900,166.551163,165.589813,164.817932,164.522324,164.059708,163.354080,162.383423,161.693878,160.728500,159.670761,158.328201,157.095932,155.485428,154.407837,153.959442,153.605377,152.954132,152.489990,151.941742,151.571655,149.544678,147.733490,145.578873,144.022736,143.704056,142.745926,140.288391,139.026947,138.431824,137.199188,136.554825,135.983871,135.396622,134.586487,134.101242,133.846115,133.969574,135.109879,136.373383,138.043579,138.637756,138.745926,138.851868,138.109665,136.456116,135.440887,133.883484,132.762909,131.904037,131.908829,131.446152,132.518112,132.824936,133.064774,133.602646,134.133774,134.818542,135.458435,136.593323,137.339096,137.267944,136.344574,136.077637,135.343506,132.662430,130.925797,128.659958,128.618774,128.799118,128.543533,129.755402,131.673248,132.305283,133.860641,133.547226,133.134140,132.717911,132.565567,132.419174,131.876801,129.940002,129.688156,129.477478,129.596924,129.697937,129.810760,130.018097,130.107468,129.684769,129.199463,127.916420,126.666397,127.952400,130.051529,130.400024,130.415817,131.938873,135.255127,137.736557,138.088318,139.355347,143.035721,145.108826,146.931335,148.759567,149.539078,149.586578,149.582443,148.756607,147.460388,146.810547,146.207092,146.010696,144.497055,142.812622,142.766602,142.971237,142.965622,143.045288,143.060120,143.182343,142.991394,142.854782,142.730377,142.659454,142.825546,142.752853,142.704147,142.729797,142.747314,142.769989,142.794403,142.818832,142.755249,142.488480,142.186340,142.091660,141.853622,142.855453,142.381363,142.347092,142.302856,141.347183,140.238388,139.468964,138.073807,136.153641,135.098450,134.126373,132.830109,132.041107,131.318588,130.942200,131.300110,131.301971,131.397064,130.648697,129.700607,128.458191,127.323944,126.901985,126.641426,126.536728,126.613602,127.100914,127.764526,127.719788,128.981155,129.272064,128.576904,127.311745,127.008202,126.486549,126.724846,126.892677,126.371544,126.302536,125.959335,125.476395,125.623787,126.118614,126.735023,126.731590,126.457802,126.487991,126.604149,126.648430,126.677261,126.455460,125.768082,125.514137,125.436409,125.615799,125.591194,125.833778,125.744377
177.195251,177.296661,174.677353,169.460663,165.394211,160.552567,160.145187,159.507935,157.176178,156.860336,157.769485,161.499176,165.563843,165.504456,165.558990,166.148804,167.289352,168.889313,172.499283,173.207016,174.533020,176.289078,176.546432,177.563553,178.856171,182.907318,185.083603,187.359177,187.545044,186.018829,184.650070,184.988785,183.215714,182.067719,177.717072,176.797150,178.577316,180.093369,176.498688,172.464203,169.383484,169.302185,169.431229,169.496521,165.787766,163.390472,157.993423,156.253769,156.093903,156.118378,156.734543,156.480331,156.089554,156.228836,156.658844,156.521744,156.499420,156.911194,158.741318,161.499664,162.462112,164.208115,165.482574,165.819275,166.269180,167.377289,167.872787,170.080734,171.439728,171.789658,171.873337,171.312790,169.625488,168.389404,167.791061,167.036636,166.280319,165.578918,165.346832,164.616196,164.022003,163.307419,162.812729,162.165833,161.225220,160.610138,159.886887,158.958725,157.815933,156.073181,154.309738,153.212784,152.639282,152.310135,151.739105,151.230804,150.701279,149.301422,147.050537,145.145050,144.493637,144.514816,144.444275,141.651688,140.035645,139.088943,137.280060,136.736801,136.528442,136.026047,134.487793,133.701736,133.247162,133.239731,133.864243,136.144684,138.207474,138.627335,138.838852,138.994232,137.278137,136.073090,135.241211,133.911469,131.635223,130.599518,131.291443,131.465332,132.338287,132.879608,133.610107,133.797226,134.648621,134.984222,135.160828,135.803650,136.284637,136.078568,135.617020,134.650635,132.185822,129.577454,128.348526,128.537155,128.605637,128.488937,128.898315,131.228973,132.055038,133.920166,133.615021,133.148087,132.674438,132.481308,132.457031,130.752762,129.558441,129.551010,129.183929,129.240738,129.513107,129.584244,129.718109,129.810669,129.450989,128.291336,126.637947,127.575996,129.733887,129.898651,130.091965,130.166199,131.577682,133.921570,136.188812,138.358002,138.555862,139.870880,143.364792,145.547134,147.515686,148.563522,148.577866,148.310577,147.792221,146.766571,145.827560,145.304855,144.926514,142.842636,142.610382,142.811096,142.992279,143.050339,143.026947,143.037628,143.149323,143.082932,143.035431,142.568359,142.520538,142.618225,142.646805,142.604385,142.687347,142.703766,142.727570,142.751740,142.590302,142.579483,142.637787,142.390213,142.294037,142.016144,142.479874,142.864166,142.987427,143.023453,142.599518,141.050903,139.985794,137.516632,136.861282,135.309769,134.878494,133.678314,132.134491,130.842606,130.301819,130.699982,131.229187,132.564133,131.983383,131.020752,130.125854,129.748886,128.090302,126.849930,126.240067,125.966995,125.772499,125.728333,126.647728,127.921051,126.971870,126.732918,127.183273,126.701263,125.787079,126.070084,125.891586,126.005989,126.045769,125.667328,125.135582,125.161537,125.638565,126.162582,126.748558,126.813744,126.452003,126.574417,125.789246,126.115219,125.838387,125.522430,125.370285,125.425995,125.569252,125.428375,125.503647,125.369774
176.301392,176.192383,175.106171,171.023224,166.921371,160.898712,160.001999,158.799973,157.163010,156.700943,158.474014,160.380310,164.675964,165.131332,163.739929,166.105682,167.439072,168.266129,171.483795,172.977707,173.440170,174.515640,177.033432,179.830490,180.133621,180.552078,182.426193,184.790512,184.834579,184.113739,184.711060,183.590500,181.781067,178.294586,173.953506,173.007324,174.487808,175.505508,171.934647,169.669708,169.364883,169.345383,169.057983,166.227997,162.309113,159.224854,156.245941,156.113983,155.853256,156.117294,156.077744,155.774353,155.840424,155.842743,155.867981,156.067261,156.114807,157.212204,159.557068,160.628677,162.100052,163.978210,166.320847,167.563507,166.847244,167.188156,168.090485,169.648727,170.082397,170.564651,170.018646,167.962646,167.603836,167.298950,166.899612,166.391968,165.812256,165.224014,164.713913,164.094040,163.501358,162.887878,162.281265,161.615128,160.936478,160.310944,159.533386,158.922455,158.333878,157.846786,156.718369,155.204407,153.251907,151.940491,151.294312,150.999069,150.494751,150.245407,148.825928,145.845215,144.520096,144.508453,144.344772,144.709335,142.012527,140.413559,140.141693,138.664902,137.451309,136.848038,136.551727,134.277023,133.641815,133.140945,132.926651,133.314072,136.249405,137.702515,137.538879,137.593491,136.447861,135.291672,134.824142,135.117538,132.738724,131.467133,131.642014,131.699814,131.860138,132.206573,132.701675,133.036163,133.743652,135.192657,134.960144,134.867111,135.031372,134.947601,133.890701,132.420319,130.695419,129.594330,128.235519,128.506012,128.381592,128.298782,129.279007,131.990814,133.142715,133.925140,133.869171,133.466019,132.595825,132.374496,132.480255,130.036270,129.202301,129.379868,129.031921,128.884338,129.096573,129.193741,129.253967,129.256180,128.347214,126.841194,126.926163,128.920441,129.736282,129.700394,129.985123,130.262817,131.034363,131.735367,133.679031,135.935089,138.862778,138.881134,140.359589,143.922104,145.354370,147.061554,147.572372,147.517960,147.121796,146.128418,145.121857,144.265182,144.036789,142.720123,142.712830,142.782776,142.940414,143.103577,143.137665,143.067474,143.025528,142.913589,142.773758,142.377106,142.255753,142.531357,142.781662,142.738495,142.615067,142.660995,142.643738,142.578079,142.591888,142.586472,142.627396,142.594162,142.599594,142.222855,142.833801,143.633408,143.600937,143.730789,143.740494,142.655762,140.837738,139.656418,138.526138,136.615143,134.883362,134.074692,132.873611,131.155884,129.774475,129.267349,129.735901,131.984833,132.628769,132.934769,131.996078,131.496445,129.701050,129.793274,127.753166,126.500648,125.699425,125.420624,125.107719,124.940636,124.976952,125.635246,126.230400,126.192238,125.745216,125.595772,125.566360,125.920105,126.205170,126.148712,124.990486,125.006783,125.115547,126.000702,126.078957,125.987167,125.631996,125.378609,125.173820,125.058182,125.090157,125.027168,125.146194,125.074570,125.101616,124.953316,124.879242,124.977852
173.557892,175.271637,174.814423,172.234161,166.711655,160.139450,158.615570,158.242279,156.377884,156.364395,156.753738,158.220901,160.947433,162.248596,163.210114,165.123001,166.282898,167.728592,170.369232,172.978790,173.445206,174.269836,176.705734,180.606155,181.577896,181.729523,182.356079,183.063995,183.220779,183.037720,182.645462,181.103546,178.161209,174.479874,172.487900,170.861954,170.411530,170.916824,170.414932,170.514648,169.432434,167.679642,165.214737,160.607468,158.265167,156.538239,156.260101,155.882874,155.663361,155.613205,156.032455,155.875702,155.753418,155.635788,155.825745,155.989914,156.038284,157.362228,158.549622,160.810547,162.369629,164.696030,167.510010,169.765564,168.974579,167.606110,167.888046,168.167023,168.560410,168.425034,168.131470,167.972916,167.817749,167.107773,166.401215,166.836792,165.717514,165.373840,164.648560,164.168304,163.832443,163.483810,163.118225,162.910156,162.496750,161.757294,160.839249,159.937775,158.658554,157.729568,156.861526,156.232574,155.549622,154.085175,152.250351,150.711197,149.941681,149.751129,149.141022,148.697495,146.228958,144.535370,144.476273,144.763992,144.639664,142.512787,142.484177,140.891174,138.644455,137.726898,136.969864,135.874115,134.306580,133.378632,133.184113,132.576736,132.492447,133.263062,133.928253,134.596313,134.202972,132.918655,132.932022,132.698639,132.534714,131.469299,131.639969,131.862061,131.988251,131.947922,132.280014,132.667130,132.954773,133.658676,135.370712,135.143936,134.630569,133.437271,132.174774,131.742661,129.972260,129.924377,129.957199,128.640366,128.090271,128.447296,130.367859,132.287842,133.847931,133.731888,133.844238,133.400360,132.155869,131.047302,129.947174,129.267578,128.895477,129.091919,128.829651,128.383331,128.553680,128.907654,128.631180,127.383537,126.285149,126.113106,127.958427,129.352798,129.686020,129.645157,129.930695,130.366486,130.832840,132.151230,132.657776,133.818008,136.831253,139.042175,139.090042,141.358749,143.535416,145.825882,146.651520,146.932861,146.680176,145.876175,144.623779,143.337036,143.406372,143.212875,143.148483,143.011719,142.891724,142.938217,143.007034,142.976669,142.877289,142.917206,142.891968,142.610962,142.539246,142.650345,142.732483,142.673569,142.416168,142.703003,142.651215,142.620224,142.563797,142.662140,142.679428,142.638382,142.686432,142.263397,142.542709,144.040115,144.244247,144.165771,144.441132,144.148056,142.953445,141.761368,140.454514,138.798096,135.290939,135.358917,133.363876,132.068893,130.027618,128.742844,128.548065,131.238190,132.008041,133.051605,133.313049,132.855927,130.144791,129.932877,129.522324,129.315552,127.865974,126.205452,125.249138,124.682655,124.483673,124.400208,124.239059,124.682243,125.446266,125.228096,125.184265,125.419044,125.938080,126.001709,125.084663,124.760574,124.783569,125.112663,124.808693,124.794556,124.798767,124.659821,124.927574,125.147766,125.831856,125.689445,125.273857,124.988182,124.618134,124.603867,124.504028,124.795784
169.814514,171.480713,171.688293,167.824310,161.423767,158.047882,157.728607,156.300735,155.617386,156.281464,156.689178,156.705460,157.725891,157.657593,161.152771,163.690216,165.102249,166.910294,169.553162,172.494598,173.468201,174.715012,176.872803,180.998077,181.847946,181.958374,182.190323,182.997894,182.936050,182.928284,182.459732,178.332336,174.462540,172.332443,170.662094,170.384476,170.480377,170.515259,170.752167,170.518906,169.223434,164.646835,158.591934,158.006897,156.810944,156.489395,156.485855,155.956360,155.299759,155.238388,155.774414,156.110291,155.792099,155.861893,155.799805,155.897949,155.993210,156.936951,160.909897,164.173996,166.128098,168.298538,170.018616,169.912598,169.768326,169.436905,168.581482,168.212570,168.306534,168.359177,168.216049,167.694214,166.699768,166.113510,166.060150,165.858765,166.067673,163.876450,164.002121,164.289856,164.164764,163.829910,163.390060,163.097137,162.918320,162.622940,162.251663,161.898438,161.295166,160.352600,158.793808,157.262375,155.855255,154.744995,154.094635,152.983109,150.733505,149.130051,148.747345,148.448013,147.984741,147.114594,145.680740,144.542145,144.306717,143.596069,143.541763,143.167404,140.218506,138.762405,137.742340,136.661636,135.181290,133.964615,133.631348,133.072495,132.690613,132.470383,132.759766,134.132462,133.077042,132.901291,132.634064,132.526215,131.159317,130.656235,130.833435,130.912231,131.525253,131.971985,132.088333,132.178864,132.533798,134.856415,135.731079,135.469757,133.509995,132.230972,131.442932,129.091232,128.634552,129.685593,129.926529,129.945175,129.286087,129.105453,131.535156,132.813644,134.498947,133.915161,134.331604,134.385635,133.065353,132.256256,129.948166,129.165848,128.823975,128.775116,128.408630,128.113098,128.055527,128.138107,127.127823,126.014038,125.917412,127.779457,128.947617,128.950409,128.770645,129.366211,129.840225,130.242065,131.511154,132.865021,134.258759,135.758713,137.269287,139.175598,139.215576,139.595444,142.692230,143.701630,144.403046,144.852295,145.240570,144.459869,142.221573,142.652603,143.277405,143.301178,142.840897,143.118698,143.008469,142.914917,142.872559,142.752014,142.844864,142.861908,142.562805,142.485611,142.556229,142.633911,142.611816,142.521683,142.523529,142.636475,142.670609,142.549011,142.589478,142.576141,142.673859,142.413406,142.682510,142.373917,142.607361,143.925980,144.552490,144.755615,144.868454,144.908951,144.466995,143.541168,142.951935,141.990479,137.196930,136.273575,135.298233,133.017700,130.464035,128.592010,127.708046,128.138062,130.780197,131.611542,132.144760,132.898300,132.576721,130.587646,130.313400,129.975174,129.216202,129.331131,127.575378,125.947792,124.524467,124.145493,124.025192,123.755440,123.850449,123.780525,124.050995,124.442490,124.465057,124.428871,124.389664,124.458778,124.476852,124.326836,124.459892,124.391876,125.010895,125.633369,126.494179,129.556580,130.798523,131.045258,130.248306,128.651917,125.885521,124.377449,124.157013,124.109169
168.858643,169.931763,168.287781,162.828323,158.183258,157.594772,157.088623,155.216309,155.422089,156.126312,156.271835,156.784973,156.928055,156.683044,159.476929,161.627686,163.729858,166.031860,167.920731,170.183105,172.933960,174.050217,176.095367,180.481415,180.962830,181.694717,180.566666,180.249481,181.233215,182.701874,181.980743,175.574921,172.018982,170.182678,169.896454,170.188141,170.624954,170.607147,170.446945,168.624176,165.044220,160.516678,157.428726,157.197876,156.828583,156.728455,155.704376,155.444885,154.802094,154.602066,155.252930,155.525269,155.937271,155.776184,155.815109,155.460785,155.394714,158.657043,163.643738,168.136169,170.140686,170.390533,170.315552,170.501465,169.776703,169.361404,169.206909,168.388336,168.304688,167.946564,167.377365,165.827911,163.337997,162.269562,161.600677,160.165039,160.319962,160.912384,161.624817,162.822998,163.731827,163.794495,163.504364,163.275497,163.006729,162.823914,162.444687,162.293884,161.865509,161.525192,160.689774,159.215363,157.471664,155.770645,154.136444,153.203751,152.556396,150.849258,148.636841,147.730225,147.547531,147.280075,146.806763,145.795380,143.572235,143.653015,143.671829,143.384109,141.587433,138.920181,137.629593,136.526505,135.878067,134.259827,134.016617,134.340698,133.346390,132.548431,131.800140,132.151794,134.205658,133.355545,132.389542,131.705429,130.168381,129.978653,129.148209,129.037888,129.286331,129.789062,131.864944,132.124161,132.125641,132.497101,133.499741,132.410080,132.147232,131.397903,128.961899,127.101631,126.622360,127.440598,128.637802,129.563858,129.432129,129.702484,131.948608,133.887375,133.966537,134.135513,134.255066,133.804581,132.918549,132.054321,128.999390,128.532074,128.599228,128.424118,128.292511,128.047394,128.230057,127.572113,125.932243,125.323349,126.807671,128.395599,128.859558,128.794952,128.756638,128.858688,129.255936,130.603409,132.793274,134.471725,136.159927,137.598724,138.207687,138.906219,139.048477,139.270294,141.080750,142.102264,141.310989,141.808960,141.193893,141.355606,141.657547,142.071228,141.957092,143.030609,142.510727,142.785629,142.993835,142.934235,142.707108,142.615204,142.479263,142.411316,142.515121,142.423889,142.354950,142.422852,142.428299,142.360550,142.363190,142.557190,142.400024,142.402954,142.440582,142.347794,142.432571,142.208847,142.372665,142.494400,142.279434,143.029861,144.388840,145.071518,145.121124,145.498398,145.150406,144.245773,143.318939,142.983383,139.214981,136.849442,135.390457,135.086853,133.675446,130.710236,127.589478,127.084229,128.337891,130.330765,130.731659,132.154892,132.132294,131.952652,130.817795,130.404007,129.855591,129.455704,127.916740,126.240257,124.893738,124.605316,124.291443,123.750519,123.556313,123.443474,123.422081,123.444267,123.735741,123.944435,124.180893,124.285721,124.176872,124.333572,125.513847,126.258812,126.925438,127.333069,127.594048,130.161346,131.404953,131.325272,130.542709,129.785934,127.441238,126.189339,123.977974,123.799774
163.564941,163.976883,161.874893,158.504196,157.896194,156.967148,155.197510,155.352905,155.768860,155.729446,155.904144,156.387680,156.731491,156.773209,159.149948,160.838150,162.399933,164.916000,167.317795,169.374252,171.372650,173.013367,176.723206,180.209610,180.636139,180.640289,180.063187,179.801102,179.762741,180.010300,179.703339,175.776001,170.590714,169.832825,168.275620,169.985733,170.237610,170.284317,168.655930,164.839371,160.205429,157.927002,157.505783,157.180466,157.432541,155.354675,155.186874,155.027023,154.183929,154.028015,154.706207,155.041489,154.584930,154.544373,154.468033,154.634308,155.096481,159.773026,164.214203,168.667389,170.656235,170.603973,171.577744,172.106903,170.596924,168.936508,168.677429,168.183289,168.219162,167.441391,166.289566,163.433762,161.467072,159.753448,159.076309,158.762207,157.893112,158.420425,159.367538,160.625519,161.935898,163.313400,163.460312,163.323349,163.047089,162.752747,162.450668,162.181732,161.775848,160.769150,159.582550,158.057877,155.936432,154.378723,153.497253,152.455231,152.309372,151.708542,150.372589,147.988586,146.831436,146.782654,146.425827,145.851318,143.932343,143.468658,143.440948,143.445221,142.619110,139.956512,137.374374,135.760300,135.732330,134.701828,134.325836,134.300659,133.869827,132.723389,131.825851,131.853180,133.512833,135.067169,133.722107,132.166382,130.613724,129.180969,128.455933,127.959641,129.110046,128.994949,129.061966,129.452957,130.572952,131.576385,132.110901,132.023499,130.232285,127.605156,126.704346,126.744843,126.827492,127.357071,127.613564,127.910667,129.080536,130.408478,131.974518,134.344864,134.002701,134.190384,133.779343,133.284180,132.979721,131.435654,129.886215,128.384491,128.425537,128.083176,128.070587,127.952255,128.093430,127.062515,125.219353,125.851883,127.262840,128.309174,128.563507,128.610687,128.658859,128.780045,128.855194,131.262497,134.084900,135.421661,136.438034,136.828476,137.273621,138.004837,138.735245,139.366882,139.939911,140.205017,140.428650,140.332855,140.645645,140.818176,140.798492,141.444046,139.271408,140.966385,141.593979,141.683701,141.861008,142.126236,142.325089,142.462189,142.343903,142.313126,142.336166,142.283539,142.188248,142.327515,142.113007,141.994675,142.047729,142.101273,141.346329,141.743790,141.681427,141.774597,142.471069,142.249435,142.358566,142.415359,142.460876,142.787094,144.262543,145.299530,145.439941,145.645737,145.548431,145.060745,143.995987,143.416504,141.111572,138.533676,136.872421,136.416336,136.546021,134.209412,131.146118,126.996666,126.451347,127.041573,128.585709,129.968399,131.619080,132.428879,131.939316,131.679840,130.739853,128.646194,127.719353,125.835022,125.112495,124.965729,124.593567,124.562210,123.675079,123.298409,123.350357,123.672707,123.833847,124.183640,124.554726,124.124855,123.968277,123.989456,126.030426,127.420860,127.415504,127.123550,128.254898,130.636749,131.293854,131.462799,131.043076,130.409164,129.898270,127.365242,124.803230,123.497665
159.934006,159.065323,158.591461,157.901962,157.017563,154.705673,154.606232,156.174042,156.067276,156.231583,155.969223,156.037994,156.995560,158.710999,160.114319,160.711212,162.057556,164.350082,166.318817,168.896271,170.692413,171.744156,173.188980,175.637253,177.985931,179.131866,179.330460,179.682129,179.666870,179.388840,176.654999,172.825974,170.120987,169.937439,166.941055,167.742493,168.632950,167.466232,163.338623,159.973114,158.044724,157.911469,157.438751,157.328094,155.280014,155.194244,154.914139,154.378571,153.588760,153.441620,154.126831,154.217728,154.241989,154.502213,154.316193,154.099503,155.965073,159.967422,163.549332,168.519531,170.734848,170.811203,171.789627,172.029907,170.294647,168.436493,168.189651,168.046234,168.016281,166.571091,164.160156,161.871674,159.801117,159.267120,158.861938,158.160400,157.582275,157.653091,157.651993,158.587204,159.939560,161.829651,163.012222,163.411163,163.165237,162.974777,162.154861,161.332550,159.600586,158.280197,156.369080,154.870529,153.159683,153.017990,152.349106,151.065918,151.241180,151.379913,150.754730,149.952621,147.462891,145.969604,145.900467,145.547745,144.669769,143.443573,143.411133,143.235153,141.303467,140.341660,137.848999,135.372116,134.856049,134.623291,134.380112,134.192734,133.974121,133.573547,131.993011,132.230820,133.494141,135.486389,135.260895,135.133316,133.704575,130.906143,128.328735,127.045311,126.805710,128.200607,128.507019,128.082916,127.683090,128.115128,128.953842,129.040222,126.953056,126.285812,126.433762,126.537788,126.755791,127.528961,127.536003,127.765465,128.143387,130.980453,132.026611,134.640396,134.159821,134.494827,134.283035,133.772934,133.109116,131.605469,129.477570,127.934868,128.173782,127.883614,127.999207,127.942070,128.111115,127.803276,125.973808,127.602875,128.036346,128.258301,128.355576,128.501236,128.719009,128.808792,129.014847,131.007950,134.677185,135.221359,135.590073,136.286133,136.988266,137.836639,138.769394,139.505325,140.136932,140.723877,140.680069,140.315262,139.246735,138.665466,138.379425,137.802353,137.489120,138.132599,138.671249,139.365891,140.061905,139.613144,140.948502,141.414536,141.435501,141.425156,141.494034,141.348282,141.286224,141.016479,140.923035,140.880966,140.844467,141.014771,141.074844,141.008026,141.233109,141.790680,142.353683,142.549515,142.519180,142.493179,142.505219,142.891861,143.984085,145.142563,145.590469,145.537140,145.915344,145.570099,144.593430,144.109055,143.611771,143.060287,139.372177,137.574097,136.293060,135.634872,132.796127,127.368080,126.470779,125.960709,127.145126,129.281464,131.074051,131.366974,131.711670,131.190140,130.591583,128.008743,127.535889,125.956619,125.199837,124.924599,124.312500,123.541344,123.106247,123.176445,123.920517,124.534019,124.499580,124.681831,124.785812,124.074402,123.797058,123.654472,124.921776,125.760857,127.221146,127.749016,128.384949,129.953857,131.489487,131.566513,131.314484,130.169220,128.834076,127.801842,125.565681,123.671387
157.673233,157.493118,158.115311,157.318634,155.595520,154.238312,154.554398,155.570557,156.159912,156.365921,156.251434,156.293762,158.830856,159.918335,160.267563,161.729797,162.055389,163.718781,166.421600,168.148834,169.562408,172.863663,173.631104,174.682938,175.047302,174.773148,176.996170,179.403137,179.476868,178.821793,171.850983,170.076599,169.946640,169.548218,166.874466,163.824219,164.053467,162.628021,159.484970,158.526291,158.342865,157.927399,157.925461,156.772827,155.105194,155.062195,154.491638,153.813309,153.118103,152.854507,153.393616,153.905746,154.397263,154.376389,153.686646,153.710648,157.411316,161.444427,164.389664,167.785645,170.761276,171.044113,171.436508,171.799210,169.828033,168.166351,167.974899,167.710663,167.484360,165.893265,163.486374,160.961975,159.216934,159.029968,158.322769,157.934464,157.596893,157.465256,157.265610,157.306137,158.280304,160.095551,161.573410,162.470383,162.530685,161.820862,160.090485,158.372406,156.674988,155.272339,152.832916,151.833527,151.958740,151.621658,151.307663,151.010742,150.771103,150.519226,150.356125,149.763504,148.546356,146.474609,145.077271,145.042770,144.990845,144.044785,143.327545,141.613220,140.161316,139.626495,138.615540,134.929825,134.614197,134.447250,134.492661,134.447113,134.168442,134.094864,132.445831,132.053024,133.074539,133.075546,131.786743,132.054245,133.137329,132.397202,130.046341,126.964211,126.163803,126.776390,127.007187,127.331703,127.214012,126.693375,126.249855,125.963608,125.902901,126.087517,126.233452,126.351715,126.482895,126.603996,126.627617,126.582993,128.753815,131.239716,131.854767,133.998306,134.472763,134.722229,135.054535,133.768311,132.048340,131.385696,128.461853,127.775818,127.927917,127.802536,127.814003,127.899834,126.896835,125.531708,126.995193,127.821510,127.976982,128.064362,128.118912,127.928284,128.064880,128.666672,129.295303,130.231873,134.114212,134.577423,135.156464,135.896622,137.335419,138.538956,139.891220,140.254044,140.596939,140.691269,140.782913,139.246124,138.129562,139.587753,147.157364,153.456268,153.628555,148.854416,143.196014,138.058563,138.182846,138.188339,139.910629,141.321609,141.336456,141.239502,141.734695,141.661758,141.212524,140.662720,140.489731,140.707748,140.747986,140.845886,140.781052,140.627853,140.593979,141.166641,142.195068,142.390091,142.681442,143.051056,142.624954,142.596481,143.460907,145.365234,145.647598,145.608963,145.862106,146.054153,145.570877,144.983047,144.230301,143.984787,142.041351,139.118500,137.749969,136.085663,132.986252,127.458580,126.133255,125.904442,125.690979,127.128952,130.229614,130.870071,130.723877,130.083023,130.380295,128.792938,127.029572,125.001678,124.318932,124.354294,123.543671,122.944710,122.901535,123.482651,123.867340,123.989441,124.487152,124.516922,124.753540,124.029205,123.467949,123.464050,125.216522,127.107300,128.034912,128.081589,128.400909,129.994827,131.132568,131.710709,131.689362,130.624374,128.722168,127.742424,124.778297,123.087570
155.696747,155.832596,156.303253,154.911652,154.046677,154.628113,154.530365,155.125977,155.817062,156.176483,156.583755,158.934708,160.033112,160.259613,161.404877,161.906677,161.992844,163.402161,166.099991,167.679443,170.685287,172.753296,174.327408,174.836090,174.719437,174.816330,175.217331,175.930069,174.700623,172.173920,170.069717,169.873230,169.708542,169.505936,167.832825,163.702866,160.727234,159.565979,159.058838,158.794556,158.601776,158.116562,157.250778,156.297424,154.946548,154.673676,153.598450,153.356613,152.716599,152.541962,152.774094,153.836395,154.324738,154.072784,153.001724,153.950760,159.077469,164.469330,168.435211,170.634232,171.167496,171.266083,171.334457,171.578217,170.432999,168.007614,167.769333,167.525757,167.712860,165.644104,163.482452,161.031158,159.004272,158.398407,158.031494,157.657150,157.452682,157.372574,157.203491,157.076096,157.408218,159.044540,160.468536,161.328369,161.213852,159.897720,157.414658,155.785416,154.186035,152.025192,151.254395,151.148743,151.214661,150.901169,150.719650,150.715546,150.629379,150.540207,149.761597,148.889526,148.744034,147.630096,145.680099,144.232193,144.119064,143.087448,141.919678,141.847641,140.513687,140.148697,139.821289,136.451523,135.579681,134.410858,134.609558,134.524826,134.505585,134.234711,132.585449,132.060562,131.323624,131.175476,130.488083,129.712158,129.474701,129.129166,128.021652,126.728485,125.635193,125.800453,126.654839,127.293877,127.158226,126.717293,125.675041,125.592720,125.716995,125.864799,126.031395,126.155350,126.270203,126.324936,126.420952,126.665825,128.841019,131.377808,132.605759,134.400864,134.660553,134.832855,135.008759,133.139572,131.729706,129.900360,127.821220,127.781769,127.633957,127.686012,127.468132,127.564178,125.699150,124.693748,125.342125,126.920914,127.541092,127.809410,128.002975,128.082825,128.027832,129.719696,132.024048,132.983749,133.604645,133.892868,134.632294,135.942627,137.057892,139.389450,140.389786,140.554092,141.073975,140.832443,140.750519,139.881836,137.867874,144.909546,152.648926,160.021622,159.572266,155.437622,150.000992,144.365036,138.895325,138.151840,139.691452,140.989838,141.472046,141.350204,141.118011,142.067902,141.791306,140.523041,140.078308,140.507217,140.638885,140.481171,139.842026,139.731934,140.066284,140.499466,141.121552,141.665726,142.206604,142.648209,142.744186,142.651733,143.652039,144.777039,145.372513,145.579407,145.453842,145.815811,145.749954,145.406845,145.114609,144.781311,143.970901,140.142075,139.927139,137.183426,131.662689,127.253532,127.071533,126.157410,125.387474,125.313210,127.609375,129.175858,129.771088,129.606354,128.994568,127.934547,126.742714,125.338890,124.402191,123.896027,122.837585,122.706795,123.084953,123.654800,123.626114,123.805840,124.185364,124.300858,124.227303,123.892365,123.307167,123.255783,124.322624,126.026154,127.605568,127.794342,128.101486,129.975830,131.512924,131.979294,131.903198,131.916626,129.857300,127.217255,125.292572,123.089554
155.611313,155.429718,155.361984,154.003235,154.082886,154.305710,154.426270,154.534882,154.553253,155.809525,158.758209,160.020096,160.905670,161.300446,162.109802,162.057800,162.143417,163.824234,165.470764,166.255508,167.137054,168.792175,171.635101,173.208359,173.878479,173.456894,171.949799,172.039307,170.243546,169.972610,169.750443,169.482162,169.214920,168.842667,165.475403,161.857910,159.985550,159.749313,159.149872,159.061874,158.509232,157.893173,156.939499,155.396408,153.758453,153.321701,153.293610,152.927094,152.291183,152.016403,152.337784,153.771042,153.950027,153.742233,152.499634,154.532089,159.535339,164.569183,167.275070,169.516159,170.477814,171.110703,171.130997,170.851425,169.425430,168.138321,167.655884,167.293396,167.189102,166.183289,163.664932,161.045181,158.807739,158.068008,157.841553,157.529556,157.337906,157.265106,157.124695,157.012466,157.117096,158.158356,159.592361,160.166946,158.622543,156.019638,154.219284,153.100021,152.385330,151.632126,151.195557,150.988068,150.684006,150.792419,150.725082,150.447510,149.503311,148.730606,148.665344,148.675568,148.289047,147.745056,146.000595,143.760208,143.540115,143.256027,142.042908,141.889633,141.718796,141.125214,139.980225,138.907593,136.920807,134.464478,134.623550,134.906754,134.799103,134.523285,132.464645,131.929749,131.762360,131.509705,131.100632,130.474854,129.920685,128.714462,128.072861,127.308052,126.552460,125.719269,125.705742,126.916077,126.547279,125.994736,125.307137,125.458138,125.545471,125.666885,125.831497,125.934738,126.040085,126.144547,126.256577,126.944145,129.851562,131.628937,133.758804,134.671707,134.721176,134.906082,134.883530,132.618988,131.703613,129.220749,127.400917,127.528130,127.314445,127.423882,127.133553,127.218849,125.308350,124.818848,124.378510,125.911652,127.287613,127.657692,127.651642,127.592903,127.883293,129.674255,132.766266,132.915512,133.114899,133.601059,134.117355,136.054459,137.167633,139.122726,139.956406,140.359116,141.100250,141.172668,140.895523,139.652557,138.005142,144.883270,150.095139,154.881226,154.923553,151.945755,148.907379,145.835464,142.159256,138.775925,141.161972,140.747650,141.175079,140.879364,140.647430,140.634598,140.475555,140.140442,140.041351,140.086349,140.097794,139.594254,138.839310,138.819580,139.295898,139.990280,140.497040,140.490921,141.552307,142.719193,142.923767,142.750168,143.525986,144.751602,145.232071,145.287613,145.265442,145.281586,145.611038,145.508408,145.361694,144.736633,143.886856,141.846558,140.378616,138.576523,133.831467,128.461731,128.082336,128.032455,125.496002,124.905739,124.587570,126.572342,127.131828,127.416008,127.386986,127.603363,127.538635,126.654320,125.645973,123.443779,122.605949,122.681335,123.362564,123.579834,123.638710,123.555107,123.847427,123.934067,123.823997,123.791435,123.175842,123.067680,123.244606,125.086029,126.654243,127.621017,128.134628,130.654877,131.705353,131.763199,131.913223,131.307465,129.923477,128.004959,125.340706,122.931305
155.754440,155.430450,155.152420,153.767929,154.118073,154.508453,154.541855,154.492722,154.559509,157.105759,159.864868,159.936249,160.585037,161.357315,161.953476,162.220276,162.997314,163.815125,165.488739,165.889877,165.927383,166.592133,170.094467,170.555878,171.170303,170.751816,170.642578,170.619888,170.559097,170.096451,169.565582,169.297104,167.588730,166.599579,162.614594,160.800659,160.573822,159.957581,159.200455,158.939636,158.511307,157.323990,156.812103,155.216019,153.799606,153.273422,153.072388,152.610596,151.835861,151.665573,152.040787,153.484894,153.793396,152.264038,153.170151,157.259293,160.962585,163.800903,165.592697,167.785980,169.554581,170.375336,170.980606,170.775070,169.793930,168.793564,168.107574,167.555832,166.764435,166.415237,165.474854,161.434540,158.946884,158.040237,157.758743,157.447189,157.251328,157.103043,156.965271,156.923553,156.816360,157.330963,158.554474,157.945908,156.553864,154.420792,153.697784,152.521118,151.856903,151.172256,150.920410,150.800995,150.809662,150.161087,148.794189,148.704575,148.673248,148.627670,148.637817,148.574890,148.398224,147.120102,146.477722,144.317184,142.631531,142.675369,142.401215,141.934372,141.868256,141.218781,138.955688,137.613693,136.855591,134.822418,134.392868,134.818405,134.827042,134.466248,132.306915,131.905624,131.819229,132.539124,133.405243,133.830368,133.702560,131.965424,130.426544,130.073166,128.986893,127.202850,126.059486,125.754257,125.909035,125.201752,125.139214,125.300117,125.377831,125.463539,125.594276,125.689766,125.828171,125.958832,126.837471,128.614639,131.120575,131.804108,133.479523,134.563400,134.745193,134.732498,134.321716,132.294479,130.799667,128.213043,127.140984,127.307716,127.074387,127.139084,126.925217,127.093506,126.681931,126.265610,124.987457,124.218742,126.629349,127.726624,127.498505,127.206352,127.812180,129.552917,131.981293,132.588272,132.673309,133.560562,134.562363,136.512039,138.215393,139.431717,139.451599,140.044769,140.409470,140.799454,140.670883,140.128250,137.649857,139.968979,144.995422,148.776352,149.048889,147.182327,144.143951,141.105560,138.405533,138.123154,139.041290,140.463303,141.027878,140.677322,140.422852,140.413818,140.139313,140.052505,139.795334,139.747345,139.663651,139.493362,138.927017,138.919510,139.863419,139.791580,140.466446,141.436935,142.393356,143.121506,143.029572,142.894485,143.482529,144.719421,144.561890,144.940506,144.980057,144.764313,145.150146,145.368011,144.956482,144.900436,144.771606,144.504883,143.161255,140.076965,136.187943,131.757355,129.300552,129.528137,128.515610,125.803978,124.374527,123.958893,124.124634,125.830490,127.189674,127.501503,127.481087,126.719788,124.059395,122.479843,122.286919,122.939323,123.032944,123.068352,123.502174,123.573296,123.603638,123.478783,123.657646,123.865112,123.307457,122.746490,122.600044,124.455116,126.655090,127.697365,127.742790,128.924652,131.050812,131.174820,131.366440,130.882797,129.348755,127.298401,124.883987,123.023621
156.039902,155.545364,154.193375,153.624985,154.097977,154.234116,154.316315,154.490326,155.572876,158.661530,159.657089,159.898300,159.869980,160.385544,161.360855,161.879028,162.077118,164.004883,165.420853,165.809891,165.738052,167.528519,169.751678,169.775345,169.876801,169.774933,170.503342,170.450272,170.378052,170.301712,170.178192,168.448151,165.557602,163.380722,161.866196,161.511047,160.885498,159.872330,158.789474,158.557343,157.551727,156.981979,156.652466,155.089966,153.528198,153.164261,152.939178,152.173508,151.479736,151.364410,151.468613,151.770157,151.851593,152.062286,156.245102,159.659149,161.732407,163.472137,164.974426,166.640106,168.078568,169.643890,170.515640,170.713257,170.231873,169.500076,168.615128,168.256332,166.491455,166.574173,165.735657,162.377747,159.740219,158.049377,157.712570,157.402206,157.147110,156.975754,156.935028,156.868332,156.785599,156.714188,157.028946,157.010223,156.327866,153.336655,151.501541,151.345367,151.358170,151.267853,151.047119,151.085327,149.153610,148.645630,148.671738,148.616241,148.628967,148.597458,148.595520,148.579498,148.572952,147.619858,145.998810,145.292679,143.013779,142.028809,141.789093,141.808716,141.234573,139.211746,137.958206,138.086609,137.971603,137.117096,134.490051,134.440430,134.640915,134.402512,132.247787,131.636841,131.644363,131.446747,132.300583,133.100159,133.448196,133.105850,132.454605,131.362946,130.238663,128.869141,127.216400,125.774132,125.159599,124.909447,124.996864,125.090820,125.188065,125.286240,125.412971,125.533928,125.649689,126.357765,127.931816,129.417801,131.450134,132.888702,134.178787,134.707199,134.719330,134.801178,134.073196,132.263092,129.916168,127.410660,126.841629,127.067291,126.844299,126.881592,126.734413,126.789894,126.645363,126.405426,125.402000,124.716515,126.104599,127.346680,127.434959,127.464165,127.915810,129.692337,131.705704,132.312790,132.545990,133.538956,135.345825,136.331436,136.884460,138.579437,138.864227,139.666138,139.923889,140.192657,140.365845,140.945251,138.348694,137.660461,139.895706,142.798553,142.988266,142.395386,139.424255,138.252716,138.080200,138.153168,139.289642,140.746887,140.804031,140.634460,140.461594,140.291046,140.225021,139.890030,139.685684,139.529877,139.389816,139.420197,139.300598,139.364578,139.317352,139.667145,141.126068,141.756454,142.389984,143.015732,143.223724,143.009216,143.496155,144.213730,144.473114,144.493011,144.507263,144.382950,144.408539,145.077591,145.364838,144.881653,144.390198,144.105164,143.478867,140.147934,137.533112,134.931168,130.821747,130.706833,130.530487,129.141617,126.425362,123.991493,123.634125,123.565765,124.397202,126.247887,126.579956,126.637451,124.093246,122.272743,122.152611,122.854774,123.007164,123.216530,123.583488,123.361771,123.554253,123.680763,123.763107,123.453743,123.355034,122.721397,122.535172,122.825676,126.137657,127.603813,128.093719,128.505447,130.015167,130.220673,130.499725,130.437988,129.637894,127.000626,125.357841,123.464722
155.996429,154.339462,153.553055,153.471252,154.027985,154.498322,154.860046,155.159180,157.450790,159.162659,159.400635,159.796967,159.535538,159.908325,160.249451,160.693039,161.485397,163.988586,165.493011,165.639633,165.511475,166.586975,169.181473,169.796875,169.897232,169.734619,170.270813,170.041718,170.238510,170.112305,168.524063,166.077927,163.235825,162.666931,162.405045,161.892715,160.791977,158.957306,157.811111,157.566467,156.806885,156.404663,155.683029,154.532928,153.086075,152.563431,152.129089,151.636383,151.226959,150.982193,151.079453,151.413483,151.568115,152.458084,156.441391,160.095139,162.190063,162.946350,164.445984,166.332397,167.986130,168.964691,169.959137,170.218903,170.371826,170.341187,168.896790,168.789673,166.967545,165.973587,165.526703,163.628189,160.835922,158.566284,157.437149,157.422974,157.451309,157.004807,156.882904,156.678970,156.729645,156.399872,156.530945,156.757568,155.643173,152.463287,151.494354,151.309662,151.361084,151.420090,151.349167,151.170135,150.648026,148.630325,148.590485,148.599350,148.569702,148.569138,148.074127,147.018799,146.828247,146.818253,145.987427,145.029968,143.539490,141.433731,141.290558,141.244446,140.864777,139.086166,138.179626,138.163895,138.063614,138.003983,136.103348,134.214859,134.134491,134.063065,133.103622,132.090698,131.985596,131.969620,132.912979,134.124557,134.673813,134.562439,133.580368,132.335876,131.194519,129.818451,128.709213,127.735184,126.207664,124.759903,124.914345,124.849762,124.894783,125.056511,125.216850,125.326736,125.962898,128.120026,129.096725,130.306885,131.333801,132.964203,134.833572,134.761383,134.782104,134.471771,133.479523,132.002350,130.145920,126.933823,126.638710,126.844566,126.609879,126.757080,126.597710,126.650032,126.498482,126.398575,125.353867,124.389610,125.225433,127.180939,127.126785,126.751518,126.932266,129.118271,131.568893,132.204636,132.490768,133.289795,133.453094,133.566055,133.621567,137.013306,138.536728,139.670654,139.809021,139.971603,139.927292,139.694138,138.982529,138.944870,138.557205,139.792664,139.853836,139.354462,139.407745,139.276581,139.401596,139.862976,140.278992,140.754242,140.689133,140.586304,140.459686,140.678345,140.600220,140.262909,139.665283,139.737427,139.477127,139.205460,139.246109,139.217285,139.266739,140.169388,141.081787,141.722992,142.351257,142.990448,143.223755,143.163193,143.281235,143.902161,144.509262,144.281250,144.202972,144.046509,143.729126,144.398209,144.676147,144.482727,144.090698,144.062088,143.654953,141.962921,141.422821,139.110275,134.906540,132.182755,132.325256,131.889191,130.105301,126.197838,124.167816,123.259903,122.940758,123.038780,123.959564,124.289207,123.054855,122.149719,122.329048,122.746155,122.701538,122.998932,122.816368,122.848495,123.548004,123.286644,123.208313,123.452507,123.312225,122.680153,122.330505,122.231018,123.825638,126.552673,127.213104,128.022659,129.095062,130.215088,130.344376,130.234406,128.615219,127.068947,125.046898,123.233879
155.475464,152.582855,152.999023,153.566025,154.070602,154.041870,154.381409,155.219650,155.780670,158.101944,158.776871,159.062561,159.016525,159.273621,159.358017,159.800598,160.319717,161.945435,163.911285,164.744858,164.936295,166.447174,169.153656,169.585678,169.371674,168.944626,169.377228,169.896057,169.584076,168.275208,165.658264,163.945023,163.664322,163.235184,162.531570,159.474167,157.893661,157.080109,156.703140,156.568283,156.048492,155.656174,154.990448,154.198074,152.266907,151.775925,151.604385,151.689468,151.111252,150.647995,150.617325,151.138031,151.220825,153.066513,154.423233,156.621750,159.434814,161.082382,163.418930,166.937592,168.232437,168.363556,169.421204,169.730820,169.980667,170.152634,169.541382,169.157578,168.378876,165.686005,165.783478,165.647217,162.994003,160.210007,158.026810,157.517929,157.443253,157.236847,156.873688,156.670456,156.485977,156.344498,156.466431,156.541504,154.105423,152.501068,151.523163,151.276672,151.298264,151.716583,151.606705,151.566803,151.400620,149.008636,148.602859,148.524231,147.872574,146.834351,146.820404,146.789948,146.796295,146.774185,146.673935,144.617889,143.951019,141.988434,140.706009,140.664352,140.743500,139.840622,138.199646,138.207092,138.155090,138.025894,137.970535,136.467514,134.642426,134.217255,133.859116,133.781769,133.906311,133.956375,134.336411,134.824814,134.871216,135.159241,134.889999,132.921539,132.218735,130.917465,130.241959,130.140396,128.947861,126.211411,125.384026,124.666496,124.779251,124.918709,125.073753,125.426987,127.150688,128.935837,129.823715,130.337234,131.659760,133.099197,134.701141,134.750977,134.734634,134.714966,133.005753,131.153488,129.143875,126.637604,126.536484,126.608910,126.581894,126.483917,126.469467,126.501785,126.327545,126.204514,125.030525,124.460999,125.026009,126.474243,127.341644,127.701508,128.228607,129.032578,129.863998,130.840866,131.914215,132.903198,133.198563,133.376328,133.529984,136.464523,137.447205,139.451904,139.643356,139.530136,139.428864,139.794250,139.336349,139.636749,139.795059,140.575439,140.629532,140.863190,140.989273,141.010880,140.901291,140.625504,140.466492,140.543732,140.488098,140.253662,140.133224,140.459396,140.062897,139.778580,139.574463,139.838791,139.678268,139.307358,139.189896,139.151825,139.286880,139.558228,140.423584,141.236618,142.051285,142.825821,143.361938,143.295853,143.219040,143.691467,144.222839,144.488708,144.124649,143.653229,143.419388,143.693436,144.279037,144.562881,144.067215,143.794312,143.731155,142.857468,142.251175,142.091293,138.981277,134.147476,133.672546,133.844131,131.585892,126.691788,124.521111,124.296722,122.995064,122.487984,122.571632,122.531456,122.367683,121.942726,122.135330,122.671806,122.685265,123.170753,122.718895,122.790474,123.012863,122.796188,122.980927,123.194054,123.007698,122.642891,121.978905,122.034866,122.774010,124.851715,125.533348,126.891129,127.515419,130.310608,130.317169,129.853729,127.908623,126.592529,124.686409,124.034210
154.204376,154.091263,152.919052,153.227783,153.753967,153.663498,154.071014,154.104889,154.862396,156.834732,157.645493,157.840897,158.068710,158.574814,159.099075,159.637604,160.276398,160.756744,161.217407,161.818954,162.893799,164.849945,166.262039,167.715363,167.937943,167.349518,167.402878,167.471802,166.243301,165.446594,164.660812,164.514618,164.080780,163.754639,161.252884,157.693329,156.277802,156.197861,155.671967,155.433914,154.995804,154.297577,153.982956,153.557083,152.058640,151.652771,151.361679,151.152084,150.750183,150.291351,150.139481,150.771408,150.926514,152.591187,153.868530,154.458878,155.748581,157.987808,161.838898,165.190140,167.588837,167.906509,168.684219,169.137939,169.334045,169.571960,169.636154,169.538986,169.339325,166.073715,165.314957,165.415543,164.441513,163.023041,160.578857,158.329269,157.245560,156.833115,156.694687,156.613083,156.593338,156.484802,156.348679,155.408447,153.274124,151.413498,151.396301,151.551529,151.489594,151.546173,151.517746,151.402817,151.682587,150.082245,147.828613,146.826355,146.803986,146.733612,146.772644,146.714386,146.714615,146.720901,146.688339,145.060730,143.576721,142.535233,140.513733,140.150009,140.047546,140.314209,139.161652,138.656036,138.572266,139.010757,139.053970,138.186279,137.304703,137.250015,136.909286,135.971649,134.261551,133.617722,133.984283,134.962784,135.226501,135.424927,135.216263,133.877579,132.419617,131.936646,131.847641,131.305740,129.756302,127.366463,126.603012,125.510803,124.739075,124.804634,125.125519,126.646461,128.485992,128.837097,128.958939,130.520203,131.824829,133.223892,134.506271,134.880676,134.515671,133.174820,132.127136,130.620834,128.031708,126.207558,126.381104,126.339294,126.429970,126.221626,126.296547,126.281296,125.979500,124.927635,123.950607,124.290260,125.706230,126.537003,126.963127,128.576126,128.975189,128.719269,128.460007,128.898666,130.192734,131.482208,132.012192,132.698471,133.325516,135.058350,135.561768,137.568787,139.270721,139.382004,139.444519,139.470383,139.393295,139.454865,139.645813,139.838837,140.487213,140.548172,140.599808,140.414719,140.219727,140.609543,140.181549,140.256775,140.032211,139.868347,139.970230,139.758499,139.696762,139.406143,139.613663,139.892181,139.962738,140.119080,139.470200,139.066986,139.257416,139.295288,139.738983,140.618942,141.514175,142.459351,143.303391,143.420349,143.297684,143.852036,144.364014,144.367325,143.889542,143.199356,143.112350,143.004028,143.736298,143.846909,143.363770,143.346634,143.281143,143.105103,142.170242,142.027618,141.769516,138.800797,136.168991,135.233688,133.836792,130.507675,127.454536,125.191673,124.551956,123.656799,122.585472,122.135475,121.775703,121.652267,121.784081,122.061836,122.081848,122.098846,122.341812,122.388191,122.427383,122.742516,122.539055,122.695908,122.884346,122.675529,121.984474,121.752159,121.896248,123.431168,124.240501,124.894547,126.361671,129.763992,130.323471,129.651917,127.185135,126.057213,125.765884,125.291290
154.154907,153.239334,152.715622,153.112808,153.418381,153.609390,153.794128,153.893723,155.766663,156.398132,156.799347,157.173630,157.505447,158.094025,158.788651,159.558685,160.167130,160.790909,161.234940,161.850769,162.460724,162.897491,163.385956,164.078415,164.780914,165.211273,165.203873,165.349976,165.404785,165.412964,165.128204,165.026123,164.445999,163.462997,160.031631,156.512787,156.325333,155.732376,154.594330,154.237381,153.197968,152.912949,152.774261,152.090668,151.554749,151.182999,150.639145,150.823364,150.282990,149.901367,149.792267,150.401367,150.695557,152.932480,153.561890,154.111176,154.992508,157.150803,160.905594,163.734299,166.758133,167.524429,167.809265,168.541824,168.860474,169.062515,169.161972,169.564392,169.590317,166.853683,165.044479,164.989944,164.444260,163.491806,162.946548,161.147919,159.087051,157.611359,156.785110,156.565857,156.723511,156.593491,156.003036,152.980652,151.635468,151.576431,151.623154,151.534042,151.597092,151.610916,151.475510,151.471573,151.591171,151.629562,149.143784,146.751160,146.732224,146.728287,146.682770,146.710205,146.688263,146.385849,145.188782,144.702896,143.375824,142.513504,141.302551,139.732666,139.388733,139.540329,140.349182,139.300491,139.325287,139.291718,138.997391,138.874008,137.446320,137.437531,137.213959,136.765778,134.427460,134.074921,133.448761,133.839828,134.788742,135.129410,135.209244,135.031509,134.528107,132.330780,131.503067,130.203445,128.769958,127.376816,126.950211,126.361259,125.836143,126.499222,127.168785,127.544319,127.986000,128.163315,128.571671,131.041504,131.841751,131.721542,132.022552,132.514435,132.604614,131.707184,130.231384,128.687256,126.965599,125.899605,126.208763,126.085236,126.254868,125.993004,126.131729,126.109055,125.739655,123.857780,124.377472,125.261566,125.659782,126.115677,126.451546,129.325867,131.153381,130.841095,130.017334,129.108902,129.369156,129.897766,130.829208,132.023529,133.218521,133.793106,134.188156,137.802231,139.213699,139.169235,139.597656,139.644135,139.531357,139.547394,139.464783,139.726608,140.528793,140.421768,139.788239,139.830399,139.787933,139.984253,139.897064,139.910919,139.831314,139.541611,139.794769,139.646210,139.357437,139.406281,139.305954,139.313828,139.235519,139.134857,138.970413,138.870865,139.111115,139.112076,139.512070,140.455780,141.428131,142.431137,143.393173,143.513626,143.292862,143.366196,144.215225,144.377151,144.244186,142.891861,142.662308,142.482224,142.680389,143.154266,143.275513,143.526581,143.236908,142.835663,142.711395,141.844345,141.708771,140.457764,136.004517,136.398605,136.437225,134.043167,130.891159,127.555565,125.008011,124.774590,123.748291,122.136093,121.975563,121.401886,121.817841,121.710548,121.918060,122.160713,122.194489,122.232918,121.912987,122.356544,122.371010,122.440224,122.382851,122.409187,121.877594,121.344528,121.471588,122.183517,123.911102,125.187469,126.570724,128.354523,130.019379,129.911133,129.142654,127.065872,125.805367,125.286766
153.813766,152.726990,152.485779,153.304825,153.602219,153.493546,154.022949,155.126129,155.514435,155.904434,156.145752,156.999146,159.033859,160.190552,161.075058,162.830704,163.163803,163.751907,162.804901,162.032852,162.505997,163.127411,163.627472,164.209763,164.758972,165.100723,165.435562,165.519592,165.679001,165.649704,166.315903,165.642197,164.016724,162.945541,159.780441,156.313461,155.644547,155.114243,153.542572,153.117111,152.513763,152.394485,152.146713,151.562698,151.034698,150.675934,150.552261,150.888931,150.182632,149.392273,149.417831,150.031952,150.318710,152.500580,153.588760,153.409805,156.498505,160.184921,162.497467,165.790527,167.305222,167.396362,167.780350,168.162430,168.374847,168.503006,168.667648,169.475601,169.365631,167.797958,165.008698,164.554977,164.293961,163.027756,162.233383,162.047791,161.821136,160.748871,159.272491,157.643921,156.951736,156.706604,155.397919,154.527283,152.973663,151.423843,151.581665,151.695923,151.560471,151.658707,151.536453,151.436249,151.482498,150.786240,149.772980,147.454315,146.661102,146.699234,146.665558,146.690231,144.776733,144.690887,144.675262,144.663742,144.399673,141.925980,141.389923,139.556198,139.036423,138.560760,139.107666,138.972900,139.417603,138.933228,138.730042,138.496933,138.044098,137.389923,137.256638,135.950485,135.746826,136.323563,134.593399,133.143799,133.556076,134.617584,135.140533,135.151489,135.056076,133.378403,132.060684,130.875854,129.392303,127.652084,127.250916,126.905891,127.298195,127.421928,127.467651,127.543404,127.617378,127.819084,128.911087,130.967239,132.583374,131.951645,131.785339,131.983185,131.587662,130.114288,129.056900,127.512474,126.069633,125.713516,125.975143,125.966614,125.971169,125.790756,125.978737,125.866257,124.060303,123.466156,123.867859,125.185616,125.306114,125.699585,128.628906,131.910629,133.144073,133.418106,134.069016,133.802322,133.709137,133.758514,135.484070,137.443375,138.359177,133.178513,134.728271,139.050430,139.074097,138.951233,139.090103,139.036407,139.180878,139.117691,139.168747,139.701523,140.317841,139.457321,139.729004,139.601868,139.551971,139.532486,139.419174,139.673294,139.559814,139.557892,139.495956,139.493942,139.261032,139.170074,139.024155,138.947540,138.922318,138.955276,138.864548,138.969986,139.122253,139.214691,139.298370,140.264542,141.262115,142.257599,143.214844,143.551407,143.136703,143.004196,142.838516,142.808670,144.275558,143.003845,142.281250,142.184204,141.945724,142.326431,142.354462,142.466934,142.192169,141.609589,141.076874,141.166824,141.183121,141.446121,138.582062,137.375183,137.803589,135.823547,133.863663,130.547470,127.348938,125.326607,124.802399,123.318047,122.516762,121.346725,121.273590,121.457184,121.672562,121.830269,121.922089,121.987907,121.771355,121.818359,122.035683,121.914795,122.167229,122.275085,122.008873,121.316772,121.204391,121.164078,122.810867,125.334793,127.729790,128.941864,128.859848,129.773666,129.109497,128.642365,127.894897,127.158913
153.333817,152.680801,152.274048,152.768433,153.220230,153.778503,154.281464,154.652390,154.942291,155.311844,157.322433,160.551895,161.977890,162.268005,162.333679,163.278702,163.782791,164.012909,163.185471,162.089035,162.643661,164.526932,165.830811,165.627197,166.085464,166.304626,167.172623,167.394211,167.192352,167.411011,167.364258,166.419418,164.239044,162.693390,159.633347,156.873215,155.256821,153.640503,152.390869,152.014801,151.965988,151.324692,151.164566,151.087234,150.501266,150.356339,150.754715,150.286270,149.773514,149.181030,149.042053,149.792374,150.201385,151.833984,154.758850,156.591827,159.026978,162.456360,164.867889,167.293274,168.351318,168.454285,168.015396,168.081497,168.129837,168.173355,168.369995,169.264893,169.165802,168.638855,165.978699,164.204178,163.759247,162.473541,162.508194,162.437546,162.077820,162.003754,161.663803,161.372375,160.107071,158.592300,156.577042,154.571213,154.233414,151.606094,151.533051,151.467270,151.454224,151.527878,151.686264,151.446686,149.626724,148.557877,147.395554,146.660278,146.361450,146.559540,146.611740,146.601273,145.682617,144.647415,144.618713,144.605194,144.586121,142.752838,140.847198,139.912476,138.739960,137.932266,137.788406,138.223587,138.914246,138.735046,138.538971,138.570496,138.295029,138.158569,137.150879,136.559036,136.552277,136.024857,134.854141,133.492828,132.504669,133.629562,134.813812,134.610214,134.530640,133.744522,132.164307,131.750809,130.173523,128.429214,128.260117,128.003204,127.785965,127.401405,127.476822,127.581741,127.657303,127.639435,127.760147,129.403244,131.100037,131.452866,131.421585,131.706787,131.392075,129.461853,127.534874,126.136856,125.461433,125.611305,125.767960,125.891678,125.759743,125.610497,125.974823,124.871559,122.717644,123.643639,124.292213,125.177666,125.410278,125.965599,130.268372,133.830765,133.651062,134.427887,134.369476,133.854080,133.669739,133.785370,133.919891,133.951920,137.116165,132.909821,135.612076,138.168365,138.789841,138.626526,138.585999,139.011246,138.840103,138.991287,138.844360,138.874786,138.887756,138.658951,138.917908,138.871857,138.943787,139.454010,139.014648,139.268723,139.156708,139.277023,139.203751,139.130295,139.096741,139.133041,138.911911,138.754929,138.763916,138.675262,138.618256,138.724167,138.854156,139.125488,139.170334,140.158829,141.470566,142.515320,143.332794,143.134659,142.987030,142.768250,142.566467,142.426743,143.011581,142.692062,141.868103,141.706131,141.438461,141.209457,141.074158,141.017761,140.858658,140.682068,140.410675,140.231140,141.024261,140.647736,139.039032,138.700714,138.670258,137.848740,136.525589,135.274689,131.802505,128.486847,125.370125,123.634323,122.850601,122.174599,121.127670,120.921600,121.269897,121.670235,121.627197,121.584373,121.664291,121.591888,122.006393,121.983467,122.050064,121.903038,121.387688,121.330002,120.909431,120.865364,123.055191,124.951111,126.972908,128.144913,128.665665,128.463867,128.107422,127.963058,127.821198,127.856361
153.027008,151.989639,152.358124,152.968109,153.112015,153.401718,153.767380,153.981766,154.972321,157.275085,158.912216,161.673141,162.183762,162.494324,162.603622,163.380081,163.685699,163.904007,162.193909,161.807098,162.411560,164.489059,166.363922,166.543381,166.689514,167.233719,168.094940,167.866455,167.601105,167.702805,167.500671,166.518555,163.841385,162.926376,159.609360,157.612930,154.747940,154.044815,151.644699,151.104935,151.190109,151.003601,150.668030,150.811752,150.005096,149.989319,150.184769,149.655716,149.276703,148.810181,148.762268,149.685623,150.799240,153.014099,156.816711,158.217560,160.705353,162.648911,164.036224,164.959030,165.883179,166.531281,167.573517,167.392578,167.406387,167.669983,168.300171,168.318527,168.948425,168.852966,166.897751,163.942886,163.722534,162.400696,162.345123,162.185303,162.264236,162.423126,162.490494,162.590759,162.145279,160.568619,158.682480,156.674255,154.167511,152.879150,151.810989,151.570160,151.388199,151.372101,151.457230,150.086075,147.678131,144.935135,144.010529,143.854660,143.805450,143.777725,144.123367,144.780670,145.144653,144.789474,144.583878,144.314850,142.157806,142.439270,140.554291,139.838455,138.643860,137.715851,136.686371,136.603531,137.799942,138.627441,138.460526,138.165039,138.189026,137.688538,137.278488,137.036423,136.697037,136.068115,135.015778,133.710846,131.733612,131.358597,132.979523,133.302811,132.380463,131.230606,130.916107,130.511124,128.980148,128.532928,128.560257,128.506561,127.832581,127.400146,127.474327,127.570396,127.720718,127.054382,126.660782,127.247772,128.817276,130.222290,130.507523,130.985672,131.080551,129.142426,127.031044,125.098831,125.146759,125.564423,125.536194,125.794571,125.482582,125.373268,125.680817,123.845505,122.079185,123.422615,124.456245,124.979530,126.594566,128.578308,130.713562,131.572586,131.007843,131.197205,132.372574,134.467178,133.689682,134.057297,133.831650,133.712097,133.740311,131.026260,133.889221,135.874390,137.487991,137.089951,137.122452,137.301849,138.375443,139.067429,138.669144,138.652481,138.646851,138.444168,138.475006,138.545425,138.669373,138.268402,138.164169,137.968597,138.025375,138.249268,138.367752,138.424866,138.176910,138.240768,138.173141,138.549454,138.648697,138.594238,138.481812,138.528366,138.615372,139.275497,139.181870,139.463242,141.033661,142.622055,143.736603,143.340927,143.114014,142.520477,142.416656,142.117859,142.158447,141.713287,141.434341,141.172348,140.975861,140.677567,141.106995,141.278702,141.200974,140.967545,140.521912,140.046631,139.770157,139.410004,139.643860,139.533569,138.972931,139.166428,138.586105,137.806808,136.823471,134.818237,130.723709,126.380997,124.880089,123.621140,121.888504,120.768280,120.744064,121.324379,121.288559,121.408157,121.466736,121.432655,121.787971,121.687302,121.506134,121.840233,121.906906,121.452072,120.604431,120.701202,121.719894,124.665443,126.251045,126.895729,127.671051,127.894478,127.801613,127.700089,128.204193,128.320877
152.514969,151.623276,152.149033,152.324326,152.433212,152.923813,153.173416,154.286514,156.568146,159.240540,161.060944,162.093964,162.346039,162.699219,162.585327,163.251175,163.452301,163.156418,161.436615,161.434189,162.889450,165.229095,166.481598,166.844391,167.296753,167.879944,168.564972,168.353928,167.796585,167.812119,167.747864,166.808670,164.516800,163.147247,159.051285,157.618500,154.288788,152.215332,150.562424,150.222885,150.395386,150.265549,150.340515,149.944839,149.536255,149.229782,149.522766,149.071411,148.987915,148.473618,148.358810,149.008453,152.511292,153.582626,155.495087,157.983734,159.485413,160.909622,161.412933,162.229431,162.590942,162.528320,165.866028,166.621399,166.838776,166.969421,168.151184,167.996826,168.681534,168.786789,167.662613,164.007904,163.560867,162.355820,162.257446,162.293686,162.161102,162.486725,162.504196,162.518326,162.047989,161.821304,161.775192,159.875366,156.909927,154.652710,153.154236,151.646118,151.320190,151.317383,150.585419,147.744034,145.590622,143.811600,144.103394,144.232620,143.751175,144.122040,143.825241,143.590881,143.172592,142.780853,142.304733,142.191391,143.410126,143.232803,140.362915,139.273788,138.722107,137.628296,136.626282,135.767181,136.719879,137.821442,138.188141,138.188644,137.755997,137.110733,137.004196,136.710556,136.343185,135.893204,134.791977,134.320206,132.617279,129.787399,129.904160,130.242264,130.501144,130.525467,129.686462,128.680145,128.277695,128.303253,128.011948,127.798576,127.566017,127.240707,127.068649,126.947060,127.009834,124.718185,125.058105,126.101387,127.316368,128.363327,128.432663,128.929932,129.171112,127.590187,125.164803,124.827896,125.210968,125.296669,125.500656,125.523293,125.124802,125.397209,125.549545,123.117828,122.085480,123.484238,124.892647,125.257332,127.069183,129.065414,130.008041,129.141632,128.874588,130.236465,132.282806,133.649384,133.904556,133.718094,133.760086,133.719696,133.762039,130.065170,133.862335,135.776474,137.574631,137.057281,137.041534,137.526505,138.047028,138.264862,138.256927,138.293121,138.181366,138.347153,138.410339,138.442032,138.151428,137.692551,137.533844,137.406250,137.389969,137.517960,137.619019,137.567871,137.713989,137.446579,137.819336,138.207962,138.216049,138.314362,138.354446,138.174713,138.149078,138.986908,139.181061,139.115067,140.299500,141.852509,143.167908,142.689285,142.144531,142.122955,142.073090,141.881378,141.625809,141.396942,141.234116,140.641907,140.465302,140.083954,139.911224,140.856873,141.205383,141.168869,141.082123,140.955246,140.720230,139.440048,139.006195,139.009308,138.854721,139.115692,139.171387,138.207748,137.471664,136.736603,134.155884,129.476715,125.084114,123.469307,122.178421,120.858299,120.534500,120.661186,121.036316,121.014259,121.256836,121.213737,121.744339,121.556831,121.510719,121.317116,121.125076,121.191628,120.786064,120.382378,120.293999,121.888123,125.360443,126.545944,126.933914,127.473190,127.889328,129.083054,129.373093,129.029388
151.894577,151.150665,151.354111,151.755707,152.094406,152.455826,153.947906,155.465363,156.820602,159.355896,161.020706,162.055847,162.256744,162.540955,162.774963,162.824554,162.697479,161.823151,161.064590,161.139175,163.373962,165.288574,166.235382,167.654419,167.720856,167.831879,168.206741,168.268570,167.959076,167.645752,167.616089,167.196655,165.716614,163.476181,158.988403,155.405151,153.467758,152.338303,150.001572,149.360992,149.532791,149.297089,149.105835,148.858017,149.142395,149.093338,149.023438,149.028519,148.719910,148.137985,147.958649,148.451324,150.729309,153.665695,155.208893,156.654984,157.582596,158.181183,159.282562,159.735809,159.589447,159.409256,162.827118,165.658920,166.493088,166.553360,167.627045,167.794922,168.335892,168.583130,167.650024,164.517288,163.136749,162.528717,162.458633,162.432816,162.406738,162.454849,162.428314,162.427597,162.485580,162.408966,162.233292,162.222412,160.708633,157.753647,155.288727,152.505630,151.583847,150.737106,148.959274,146.735306,144.785645,144.387695,144.353912,143.934753,143.759277,143.809235,143.922729,143.701065,143.886398,143.993134,143.704910,143.713028,143.761719,143.343979,141.529526,139.349670,138.189285,137.686005,136.742569,135.746460,134.914230,136.131287,137.495209,137.192139,136.833511,136.758072,136.545578,136.157272,135.832336,134.909637,134.347198,133.595215,132.856155,129.017563,128.074966,129.259018,130.013840,129.648529,127.972916,126.661118,125.565468,124.847015,123.886665,123.778152,123.244843,123.278038,123.137917,123.105591,123.144913,123.550362,124.265182,124.271950,125.604912,126.333900,126.008583,126.081741,125.336197,124.589020,124.265182,124.783440,124.945259,125.213943,125.534790,125.384666,125.008011,125.388344,125.392273,123.292900,121.450012,123.980934,124.877090,125.411461,127.260895,129.099533,129.122711,129.180756,129.195984,129.475296,129.741394,132.083450,133.755508,133.839462,133.801849,133.611267,131.813354,128.593109,132.636703,135.595490,136.989792,136.930908,137.108810,137.497009,137.804291,138.143555,138.101212,138.277130,138.523651,138.610214,138.464111,138.235947,137.850769,137.493271,137.076859,137.003647,136.984482,137.087799,137.217957,137.262375,137.284546,137.263748,137.445999,137.634384,137.827103,137.944061,138.070877,137.957108,138.187149,138.502319,138.820236,138.991318,139.532333,140.660507,141.566559,141.622559,141.644180,141.961288,141.801224,141.707474,141.403427,141.510040,141.445480,141.008377,139.622223,139.445023,139.077286,140.096451,140.655533,140.994995,140.913025,141.122208,140.673065,139.993912,139.452133,138.679871,138.460800,138.372650,138.700775,138.553284,138.723511,138.457916,137.263947,131.904190,126.010025,123.234261,121.782639,121.022636,120.371216,120.057915,120.252747,121.042343,121.443863,121.294594,120.935188,120.932693,120.879738,121.093613,121.170143,121.460999,120.863922,120.208885,120.049454,120.980309,124.133820,125.968971,127.111786,128.327560,129.770340,130.013550,129.998886,129.632446
150.587646,150.751678,151.119720,151.238007,152.020752,152.808762,153.981094,155.443359,156.508347,158.304123,160.428177,161.736115,162.412781,162.716888,162.792831,162.822281,162.705902,161.632080,160.772705,160.930817,163.290344,164.569839,165.300644,167.778412,167.675034,167.621140,167.888611,167.862946,167.886063,167.829330,167.547165,167.001236,166.491791,163.236801,159.058243,155.562286,152.692856,152.149124,149.689041,148.578674,149.194885,149.172318,149.001358,148.763565,148.712936,148.896271,148.919205,148.632446,148.585724,147.947372,147.633804,147.860855,151.998230,155.235840,155.565369,155.015839,155.268997,155.423264,156.564087,156.986740,156.932037,157.554413,161.716751,164.320114,165.778702,165.988892,166.637009,167.675903,167.769119,168.357010,167.941513,164.962387,162.778107,162.567673,162.574036,162.366501,162.400589,162.620361,162.572510,162.575500,162.891510,162.770203,162.620453,162.459015,162.334137,161.433411,158.514603,155.460892,152.690155,150.340683,148.858170,146.515930,144.113815,144.112640,143.863754,143.772705,143.971146,143.917297,143.692123,143.678680,144.422409,144.399597,143.992050,143.963943,143.977402,143.923294,143.573883,143.592575,136.066345,137.138596,136.724411,136.004166,135.040756,134.063599,134.746872,136.122070,136.284668,136.340576,135.993683,135.920197,135.418640,134.679108,133.588577,133.027313,132.748322,128.636093,126.796310,126.907471,127.367012,126.809944,125.978790,125.086632,123.938087,123.567673,122.366081,122.242378,122.273102,122.726814,122.880951,123.021095,123.462799,123.295128,123.692139,123.633110,123.889091,123.924713,123.969223,123.720604,123.700066,123.980614,124.460258,124.630547,124.685097,125.005791,125.638763,125.011337,124.855797,125.182281,125.082176,123.820259,123.100578,124.120888,124.817177,125.713799,127.339676,129.006180,129.077148,129.053055,129.034210,129.059723,129.428604,131.193542,133.711273,133.808624,133.461304,130.311066,127.147758,128.002808,133.749298,135.413345,136.466949,136.838440,137.453384,137.609222,137.533493,137.951935,138.112457,138.022339,138.799866,138.668304,138.658493,138.752823,138.384888,137.886139,136.875183,136.805191,136.893738,136.854462,136.940964,137.113953,136.990250,137.048645,137.253571,137.340057,137.537979,137.695282,137.862671,137.814728,137.963196,138.152084,138.257874,138.246399,138.467484,139.239639,140.149063,141.082230,141.348618,141.767380,141.621994,141.430801,141.285126,141.132889,141.349319,140.754333,139.170593,138.776642,138.292999,138.406540,139.123840,139.257584,140.111542,140.235275,139.994568,139.814484,139.538071,139.214676,138.310608,138.077621,138.179779,138.751648,138.638046,138.403625,137.630630,132.931732,127.293526,124.829094,123.017914,121.979599,120.668152,119.964287,120.078209,120.656776,120.670906,120.706604,120.523064,120.527054,120.656105,120.766479,120.933472,120.927597,120.595490,120.088699,119.838661,119.914085,122.164345,125.268417,127.054535,127.895721,129.426514,130.068527,129.943619,129.891235
150.074692,150.499069,150.547302,151.112778,151.992554,152.856567,153.859009,154.784637,156.556671,158.656189,160.199478,162.019714,162.422211,162.521118,162.775681,162.504822,162.759964,161.148712,160.430069,160.591034,161.980896,163.932510,164.385620,166.674240,167.007950,167.275192,167.198212,167.902115,167.968475,167.523666,167.579208,167.358047,166.008957,162.674576,158.827011,152.555267,152.001678,150.834015,148.577179,148.011337,148.135132,148.353638,148.229080,148.175583,148.169342,148.441437,148.058121,148.016403,148.012207,147.629715,147.332642,147.495712,151.597595,154.710861,154.424835,153.079315,153.196564,152.952728,153.908493,154.508774,155.393631,157.899872,162.400299,163.069992,163.295334,165.718414,165.666321,167.485611,167.630447,167.709106,167.287659,165.347717,162.544449,162.533005,162.679962,162.473648,162.537125,162.838089,162.589630,162.609238,162.947250,162.834854,162.798706,162.665039,162.520752,162.303513,161.032166,157.971207,155.602966,153.233231,148.813187,146.027893,144.191437,143.772125,143.834091,143.828171,143.880692,143.877136,143.907120,143.701904,143.780441,144.570068,144.232590,143.850052,143.917862,144.025986,143.681213,143.687378,137.264221,136.131622,136.374420,136.016525,135.490234,134.403748,133.335938,132.836533,134.465149,135.702530,135.729767,135.750122,134.837555,134.061188,133.004730,132.487228,131.092606,127.762421,125.792458,125.331627,125.058151,124.395538,123.881195,123.266235,122.892662,122.434326,122.291634,121.957809,121.968666,122.105812,122.084084,122.113403,122.222961,122.313934,122.418755,122.497704,122.622726,122.697342,123.064583,123.429184,123.947304,124.135574,124.234108,124.300362,124.320320,124.331490,124.554375,124.601936,124.639099,124.932831,124.295860,124.285896,124.686600,124.496521,124.731728,126.219872,127.987022,128.995987,129.083313,128.978363,128.976410,128.892853,128.831879,129.390228,131.945877,133.810135,132.812302,129.895966,126.909950,126.344627,133.720825,134.626846,135.504791,136.071487,136.779099,136.870865,136.712311,137.053680,137.899948,138.238998,137.702515,137.223785,137.336990,137.431519,137.776367,137.688889,136.829086,136.541245,136.498062,136.516464,136.584656,136.710358,136.875015,136.508682,137.028702,137.106064,137.254639,137.415375,137.443527,137.582031,138.085953,138.145950,138.268799,138.252899,138.279022,139.144058,140.067322,140.562424,140.841980,141.321518,141.330048,141.426819,141.089005,140.793243,140.588730,140.564072,139.274063,137.784241,137.607819,136.958420,138.217072,138.884384,139.024185,139.211044,139.277420,139.708115,139.537231,139.166351,138.840759,137.838745,137.643906,137.841766,137.568985,137.263748,137.095154,133.772049,130.115189,125.643517,123.639626,122.466522,121.073921,119.901909,119.741829,119.946678,120.278229,120.465240,120.398842,120.376350,120.086342,120.442703,120.518959,120.393120,120.414978,120.064453,119.415710,119.545761,120.901993,123.407379,125.771439,127.358528,127.856476,128.909821,129.165527,129.899551
149.812378,149.826706,150.858719,151.557556,151.952759,152.396637,153.466949,154.353790,156.737305,159.705780,161.348251,162.017670,162.434982,162.271088,162.162888,161.936798,160.123184,159.864288,159.783005,159.757797,160.537949,161.443619,162.455948,163.554993,164.431320,165.290695,166.386200,167.293076,167.467773,166.994888,167.240356,166.585052,164.462723,162.325592,159.306351,152.363388,151.908936,151.101440,148.708939,147.414276,147.667419,148.076904,147.985825,147.737350,147.730347,147.571274,147.949478,148.087265,148.013626,147.388199,146.939865,147.070297,150.219162,152.933182,152.642227,151.561417,150.613419,151.499191,152.378616,154.175247,156.769333,160.616806,161.878387,162.397461,162.811264,164.636246,165.098923,166.074921,164.960754,164.628281,164.355545,164.386475,162.340576,162.057022,162.232315,162.358322,162.581421,162.714050,162.575226,162.659882,162.759293,162.846283,162.806442,162.751526,162.476501,162.032059,160.991211,158.751740,156.978317,154.244934,149.553513,147.312759,145.037155,143.890549,143.836914,143.822220,143.721909,143.847214,143.790344,143.570374,143.684479,144.170242,144.309296,143.992432,143.944794,143.827835,143.949829,143.594208,143.630432,135.533768,135.538483,135.338898,135.060867,134.702026,133.747467,133.009781,132.185318,131.230225,130.665955,131.864655,130.529449,130.118179,129.215393,127.923622,127.123116,126.354767,125.893051,125.317818,124.694725,124.057655,123.516777,123.027779,122.708702,122.416260,122.258957,122.205063,122.159370,122.165543,122.248161,122.388893,122.450104,122.559494,122.661537,122.835518,122.971130,123.169121,123.336411,123.440910,123.512772,124.341408,124.451561,123.822884,124.133209,124.042206,123.989586,124.075020,124.230545,124.581184,124.306946,124.115494,124.205261,124.304588,124.521980,125.790634,127.301430,127.631943,127.863335,127.901520,127.558762,127.000969,126.496696,127.258316,129.739639,130.437637,130.040421,128.072449,125.865784,125.527206,134.144424,134.542206,135.103760,135.847595,136.060852,136.117218,135.662415,136.054962,136.300186,136.468369,135.697723,135.950775,135.864380,136.146240,136.742905,136.728439,136.670853,136.369156,136.493134,136.668945,135.920334,135.610260,135.941635,136.021378,135.962952,135.840210,136.327942,137.499084,137.324371,137.336472,137.996628,138.183319,138.243240,138.258072,138.253754,138.437271,138.689743,138.674301,138.586548,138.828766,139.185852,138.929047,139.713181,140.517258,140.277679,140.266083,139.286316,137.496567,136.733597,136.205612,136.372757,137.335922,138.169556,138.697632,138.319626,138.985901,138.808060,138.749115,138.205154,137.746277,137.144012,137.209427,137.236069,136.847900,136.009186,134.218552,131.827133,128.687836,125.707748,124.194893,122.902184,120.143890,119.423340,119.410576,120.063232,120.199089,120.265434,120.043045,120.080482,120.198341,120.171707,120.090569,120.200027,120.089684,119.530869,119.355530,119.503159,122.451340,124.635376,127.715897,128.322021,128.737579,129.439636,129.812973
149.461441,150.011810,150.956390,151.845825,152.244385,152.383377,153.038101,155.434799,158.522812,161.078629,162.024811,162.051880,161.765366,161.892532,160.870331,159.928543,159.979111,159.154037,158.765930,159.667145,160.814667,161.108032,162.345322,164.069611,165.334473,166.116653,165.772583,166.066711,166.319351,166.713623,166.738235,165.160568,164.399887,162.845520,159.042542,152.417252,151.026794,150.284866,147.859802,146.888519,146.824020,147.316025,147.204483,147.212311,147.250504,147.163513,147.544357,147.536682,147.520081,147.022324,146.584991,146.760422,149.819794,151.194244,150.579865,149.423523,149.656662,150.593964,153.517563,157.266632,160.332031,161.075806,161.491913,161.676727,162.320999,162.504028,163.827576,164.568329,164.296646,164.290146,164.228638,163.664017,162.122940,161.745911,162.477966,162.096451,162.290527,162.535492,162.604568,162.708435,162.798950,162.815613,162.751114,162.570251,162.132355,161.453766,159.484619,156.966309,154.479034,152.801895,149.959991,148.244278,146.219345,144.113510,143.883514,143.913361,143.851990,143.813095,143.874969,143.709030,143.687836,143.690796,144.436005,144.155701,143.847336,143.829163,143.913971,143.871658,143.906464,139.644211,134.852371,134.663269,134.358688,133.872940,133.580124,133.420197,132.818695,132.026627,131.337601,130.597855,129.937286,129.362244,128.905014,128.326599,127.730675,127.059929,126.307426,125.363106,124.674782,123.868881,123.233284,122.617439,122.527855,122.497925,122.336388,122.072998,122.048561,121.598320,121.711220,121.772087,122.220016,121.953598,122.182121,122.524361,122.581207,122.859009,123.194702,123.291824,123.435730,123.272720,123.634537,123.811584,123.526527,123.618637,123.651443,123.663719,124.050873,125.107094,124.286057,124.125587,124.262665,124.305794,124.911682,125.050117,125.606277,125.672661,125.418877,125.449646,125.629326,125.331177,124.585312,125.148781,125.451035,126.026131,125.918167,125.662102,125.497498,125.499359,133.561768,134.410477,134.845413,135.072189,135.349823,135.543564,135.625092,135.619247,135.549301,135.768417,135.817917,135.832016,136.059280,136.156479,136.103394,136.385880,136.419052,136.140686,136.352936,135.535614,135.645264,136.121567,136.485214,136.498016,136.462173,136.261826,136.210968,137.726151,137.176361,137.130066,137.679047,137.661484,137.586929,137.639359,137.370804,137.925613,138.082001,137.304657,137.500397,137.473053,137.733353,137.846420,138.032639,139.729233,139.848709,139.634476,139.431671,137.650238,135.791641,135.611832,135.179642,135.440384,136.704269,138.061340,137.614319,138.329590,138.287338,138.117599,137.812195,137.633514,136.871353,136.506027,136.593948,136.264740,135.757477,134.055481,131.405640,129.518539,127.048035,125.294136,123.845985,120.520561,119.072487,119.337044,119.575058,120.265457,119.943596,119.746490,119.746140,119.919891,120.005302,120.039177,120.345085,120.058777,119.814095,119.031380,118.967751,120.222916,122.672188,126.516632,127.501816,128.068573,128.698578,128.333496
149.597031,150.182602,150.975388,151.420013,152.208145,152.335052,153.682480,158.517563,160.263641,160.727615,161.370987,161.303909,161.846786,160.609985,159.705078,159.977463,159.443512,157.747406,157.274323,159.041748,160.151962,160.778000,162.288223,166.154022,167.386215,167.474396,167.263885,167.069077,166.045319,166.010696,165.849747,164.837875,164.130920,162.031250,158.932541,154.504593,150.577957,149.051361,147.794235,146.321976,146.265610,147.015457,146.895569,147.001038,147.027618,146.878601,147.045731,147.115753,147.358032,146.733566,146.230560,146.225098,148.277344,149.722641,148.497040,147.982529,148.737122,150.859253,155.917084,160.170456,160.846466,161.192978,161.348053,161.883133,161.974670,162.158234,162.437714,164.272858,164.311493,164.381577,164.229477,163.669830,161.932877,161.188751,161.939087,161.787140,162.007980,162.224533,162.565414,162.618759,162.685043,162.540497,162.279434,162.318176,161.263657,159.678375,156.271408,153.479385,150.969925,148.607239,147.450958,147.721802,146.735168,145.200119,143.879578,143.893982,143.910538,143.842804,143.813965,143.697144,143.764160,143.697876,143.933929,144.271027,143.907639,143.869415,143.877396,139.187759,134.237045,134.508820,134.664978,133.883621,133.945831,133.437103,132.838699,132.245529,132.093887,131.600784,131.182236,131.065353,130.499344,129.874695,129.427917,128.330261,127.648849,126.450562,125.412582,125.218567,124.774765,124.117584,123.431671,122.401566,122.014359,121.817665,121.546043,121.392334,121.295670,120.952911,121.278511,121.114151,121.319527,121.460403,121.633362,121.915405,122.004791,122.182884,122.162537,122.429924,122.571442,122.596962,123.155121,123.293182,123.169563,123.250374,123.340256,123.370064,123.534622,124.015366,124.175018,124.316353,124.077782,124.204918,124.429222,124.569679,124.453842,124.521553,124.569359,124.499130,124.429207,124.548347,124.595802,124.627205,124.759949,125.405952,125.754837,125.853355,125.706955,125.723122,128.001816,134.444870,135.373947,135.353134,135.714966,135.843674,135.813828,135.684296,135.723694,135.782776,135.947906,135.987656,136.301804,136.308289,136.271851,136.769424,136.447433,136.133148,136.281723,136.187088,136.461105,136.737839,137.109436,137.089096,136.894318,136.813065,136.761459,136.882584,136.910919,136.989975,137.180527,137.609100,137.021149,137.157928,137.200134,137.498505,137.545944,137.222351,137.284531,137.782837,138.351044,138.919250,139.408875,139.843735,139.245377,139.085312,138.821716,137.355560,135.326614,134.711090,134.242004,134.334503,135.393158,136.237350,136.517700,137.420319,137.468552,137.593216,137.318924,137.515594,136.552155,135.832321,135.792953,135.752014,134.414688,131.967026,129.268570,127.701233,125.884544,124.505867,122.746025,121.088669,119.541000,118.973442,119.153366,119.382195,119.534142,119.593224,119.811554,119.732224,119.629974,119.447380,119.480736,119.666489,119.778450,118.986389,118.814186,119.224815,123.047157,124.898651,126.744919,126.874474,127.572548,127.811172
